100

-2.818370	2.891615	-2.359407	0.717688	-0.132181	1.495753
-1.756685	-0.669689	-2.676457	-0.512358	-0.814069	-0.945609
-2.846582	-0.270516	0.066827	-2.387434	-1.033412	-0.694932
-0.098018	-1.525123	1.673841	0.642691	0.448428	-1.266886
-2.710348	1.605337	-2.664241	-0.209708	0.382585	0.854739
-1.529510	-1.308300	2.173886	-0.377186	-0.739501	0.024950
0.191053	2.298934	0.137550	1.640880	2.316650	-0.232553
1.728099	-1.883837	2.024626	-0.438697	-0.264136	-1.359147
0.358074	-2.534292	1.835967	0.204344	-0.541419	0.141506
2.754730	-2.299451	2.516248	-0.215093	-0.440888	0.875363
1.604046	-2.454043	-1.537914	-0.365081	-1.682346	-1.681203
2.504322	-0.600689	1.015768	-2.963909	0.725382	-0.109579
1.460998	1.888115	2.877336	5.618183	3.826263	-4.500325
0.658601	-1.966540	0.995742	-0.306520	1.228834	1.322387
1.963377	0.910765	1.990403	246.957507	-1522.946030	856.082601
-0.967123	2.424509	-0.636776	-1.895118	-1.176068	-1.891302
-0.016034	1.497007	2.065980	-36459475037.504349	50425581000.129333	154657035789.309570
2.698071	-1.003976	-2.307769	-0.272578	-0.137430	0.870876
-1.129865	-2.506900	1.258714	1.998852	-0.498568	1.094759
2.778134	0.185170	0.265581	405.849146	251.033990	151.897778
0.029974	0.554655	1.311276	-1.789873	-0.559771	2.069212
2.083929	0.153268	2.836759	-0.643614	-1.280515	-0.287346
-2.190308	2.317237	1.914876	-0.212964	-0.086502	-0.116360
2.825812	-1.550001	0.298860	-0.514853	7.594845	-7.337523
1.877425	-0.528153	-1.627646	2.278019	1.145744	1.339950
-1.601154	-0.223143	1.952189	-3.338366	0.143972	1.196972
-2.751691	1.937163	-0.263375	11.817557	40.537552	-67.083092
-2.871619	2.544091	0.947474	0.776777	-0.647460	-1.021335
-2.920184	0.420523	1.289212	1.165299	-1.547784	-1.894841
2.354010	2.347933	-1.110160	-0.746838	0.363549	-0.571986
-0.641130	-1.181081	-1.022668	-1.800311	0.359684	-1.166321
-1.164425	-2.622431	-1.643679	1.088562	7.436236	-1.560592
0.372009	2.246060	1.586298	1.973076	-0.129221	-0.290107
-0.929700	-0.227317	0.555354	-1.197518	-0.141139	1.031358
-0.562962	0.834496	-1.443041	-3.552775	0.104169	-0.258435
0.906740	1.769848	0.680552	-1.497291	0.586290	0.352423
-1.100997	1.420878	2.072433	1.007005	1.424591	-0.208098
1.476727	1.095982	-0.769780	1.101452	2.901419	1.191737
0.710606	-0.048061	1.879945	0.599898	2.122519	0.429369
-1.793565	-1.441913	0.003642	0.235743	-0.611846	1.327676
-1.863337	0.846520	2.638424	-1.866207	0.137224	1.251028
-2.549781	-0.280142	2.368003	-0.827803	0.287303	-0.611697
-0.485700	2.219936	-2.856474	0.030723	-2.012385	-1.946437
0.928688	-2.560803	-2.373671	0.413078	-1.121557	0.791572
-2.753242	-1.725697	-1.320309	-0.257659	0.430652	-0.004745
-0.227533	1.429047	0.245266	-2.727494	-1.948250	1.014507
1.489895	-1.350957	-1.880025	1.192926	-4.184458	1.129835
2.331957	1.345038	-1.261619	0.279031	1.964309	0.044378
2.580057	1.462898	0.993703	-0.013848	-0.063566	0.362974
2.473985	2.242048	0.749583	36459697598.065704	-50425202200.641205	-154657318325.358093
-2.871062	1.187047	-2.224253	-84541604.830633	187992713.705562	-547266095.431804
-0.575590	-2.485449	2.332719	-0.269404	0.490736	-0.631512
-0.029071	-0.925416	-2.771891	0.021539	0.056267	-0.260050
-2.165263	1.453557	-1.453917	-0.731683	0.385135	-1.177631
2.565019	-0.769046	-0.738855	-0.881451	1.008465	0.131287
1.162161	1.215706	1.670969	0.077336	0.611505	-0.920767
-0.937723	-1.227365	-2.056024	0.243512	0.878575	-0.727293
0.958366	0.115520	-2.585406	6.400913	-1.609336	-3.771778
-2.588917	0.283518	-1.409958	-0.183820	-0.826950	1.772495
1.422262	2.028985	-0.225414	0.015683	-1.784628	-0.989846
-0.101179	-2.320090	-0.837083	0.346938	1.493282	0.217736
-1.857263	-2.665720	2.161639	0.486089	0.453470	-0.592397
1.120304	2.853355	1.334942	24.478731	16.893668	40.488733
0.721928	-0.558440	-1.833307	-1.302923	-2.389286	-0.015914
-1.901680	1.604450	0.828914	-1.548844	-0.096321	1.890709
-2.622410	-2.831037	-0.287566	-0.316099	-0.589141	0.318508
-0.949611	-0.187991	-0.672055	0.041073	-0.307913	-0.115184
-0.054875	0.738903	2.511627	0.889098	0.599260	0.312741
-0.961001	2.033948	1.102354	0.923800	-1.035721	0.994651
2.444773	2.079423	1.817109	0.317328	-0.601376	1.241778
