100

2.807029	-0.366940	-1.527225	-1.087236	-0.580450	-0.526553
-0.437056	-2.918420	1.498620	-0.336218	-0.578509	-1.982801
-1.292775	-1.430196	0.915197	-1.644839	0.207714	0.465266
1.553884	0.266615	-0.330702	0.149811	0.471325	-0.167879
0.821884	0.938083	0.518308	-1.736088	1.010932	1.902982
-1.514934	1.994149	-2.534192	-2.375258	0.171060	-1.429431
0.913804	-0.697472	1.332510	-0.498817	0.944214	-0.019645
1.842211	-2.148813	2.510759	-0.084966	0.503677	0.213349
2.693975	-0.281856	-0.068371	0.508955	-0.528067	0.284103
2.073526	0.313819	-1.809044	1.260454	-0.383123	-0.549608
0.632422	-0.651907	2.319827	1.070579	-1.569674	-0.480159
-1.979237	-0.538659	2.785807	-0.715011	-1.451384	0.731334
0.759365	2.310571	0.107816	1.508043	0.569454	-0.441024
-0.814883	-1.987794	1.634659	-1.041384	-0.952577	-0.704812
0.028554	0.369604	-1.736883	1.848408	1.536941	-0.086486
0.345763	-0.904966	-1.680109	-1.282195	-0.065672	0.565405
-0.817762	0.483942	-2.539868	1.646761	0.433436	1.617893
-1.283827	0.263454	-0.138062	-0.570118	0.769378	-0.279530
0.359116	-2.036261	2.156227	-0.421929	-0.286655	0.679870
-2.238997	1.203984	1.989495	1.006499	-0.379497	0.003277
-0.312901	1.675653	-0.959005	0.684732	0.400625	0.415666
2.625534	-2.299921	0.502420	0.438712	0.859633	1.181967
-0.322539	-0.643379	-2.740663	0.852358	0.120333	0.104718
0.931956	1.572346	-0.506050	1.476224	0.680043	0.023200
-2.397483	-1.346683	-1.599912	-0.007766	-1.704216	0.398893
1.143158	0.423717	-1.288702	-0.643236	1.716291	-0.993094
1.491120	-1.953367	0.807281	-0.254999	-0.679918	0.101117
2.080419	1.243510	2.125022	0.760351	0.406299	-0.770138
-1.188544	-0.903138	-2.380561	0.537161	-0.387146	-0.807815
-0.962146	-1.346860	-1.310642	0.218420	1.424019	0.910116
-1.683577	2.319043	2.175113	-1.390073	-0.925761	-1.388847
1.303864	-1.208329	-2.544869	0.961862	-0.526379	-0.453901
-0.435538	2.730902	-1.284655	0.586070	-2.140730	1.370995
2.721235	0.667493	1.355685	1.026185	0.347247	-1.356613
-2.031130	-2.730306	0.266035	0.646206	1.010845	-0.396112
-0.423908	-1.767662	2.752330	-0.720572	-0.033149	0.454208
-0.780614	-2.387379	0.207289	-1.194099	-1.051388	-0.383459
0.026493	0.217798	2.261520	0.447031	-0.576400	1.638293
-1.290248	-0.930804	-0.010610	-0.246195	-0.340678	-0.154266
1.988263	-1.150912	0.972185	1.141177	-0.951682	-1.939314
0.512610	-0.876825	0.388023	-0.011129	0.187361	-2.082930
-1.601933	1.907292	-1.474793	-0.480512	-1.249308	-0.649659
-0.106055	1.122960	1.611443	0.397133	-1.000978	0.526936
2.072526	1.927352	-2.232869	-1.216736	-0.487069	1.124245
2.772212	1.993465	2.410730	0.947045	-0.763810	-0.730082
-0.910547	2.084520	1.422945	-0.435591	1.254309	2.600627
-1.546309	-2.549233	-0.664649	-1.600708	-0.690883	0.782029
-0.287336	-0.030406	0.035909	-2.536913	0.247836	-0.024611
-2.422152	-1.697802	1.178529	0.824319	-0.386917	0.346663
-0.035235	2.537805	2.747961	-0.346055	1.581447	0.488218
0.303141	0.801762	-0.647890	0.100209	-0.274099	-1.301325
2.907579	1.872695	-1.205881	2.031251	2.244125	0.268013
0.961244	0.222620	-2.269027	1.002371	-0.183902	0.958652
0.480938	0.236249	1.259021	0.007859	0.285853	-0.593074
-2.745804	-2.068081	-0.520720	1.670052	-2.102070	0.377982
-1.181177	-2.487601	2.347683	-0.864220	-0.612092	0.055500
-2.305679	-1.558256	-2.752107	-1.074802	2.057384	0.279683
1.606795	-0.136688	0.623709	0.364785	1.183398	-1.542984
2.547465	-0.927362	-2.397610	0.590822	-0.788303	-0.871247
1.376090	-0.929088	-0.347810	-0.341698	0.667340	-0.477535
1.448401	-1.402372	-1.330234	-0.220454	-1.469924	1.056298
-2.450523	-1.165032	0.257072	0.680923	-0.703168	0.562815
-0.902125	-1.085932	2.286976	0.387358	1.210915	0.293511
-0.310286	-1.148930	-0.200324	1.169172	-2.099304	0.602116
-1.250405	0.780229	-1.561235	0.655262	0.337890	0.736594
-0.610890	1.450302	0.083466	0.551275	-0.212658	0.461643
1.322186	-2.368347	-0.782877	-0.125524	-1.867344	-0.910521
0.540785	-0.348172	-0.523309	-0.130985	1.137481	-0.766304
0.522283	1.350900	-1.619843	-0.178076	0.225219	1.066246
1.230978	2.530745	-1.286025	1.482441	0.312750	-0.029577
-0.766886	-0.141562	-1.274622	0.454187	0.000278	0.341966
-0.334833	-2.831228	-2.284895	-1.201850	-0.872122	1.643798
2.710748	-0.363812	1.008962	-0.794908	0.404289	-0.933096
-2.158517	2.589648	-0.914994	0.545295	1.134750	-1.285534
2.368907	0.058983	2.351298	-0.940320	-0.150914	-0.109868
2.092841	1.716562	-0.465976	-0.169629	1.761168	0.186626
-1.850812	2.757936	1.213839	-0.206076	0.273403	0.064484
-2.686326	-2.329346	-1.648486	-0.980752	0.934441	-0.712888
-0.258002	2.394072	0.526688	0.686066	-0.144868	-1.623485
0.889309	1.450206	2.702684	0.804204	0.258755	0.148219
100

2.328100	2.351984	1.503962	0.388838	-0.910809	0.036240
2.307429	-1.546659	-0.279052	0.706490	-1.047238	-1.786726
-0.840972	1.466892	-2.907977	0.392859	1.073073	1.607364
-1.013735	0.204463	2.587844	0.090661	1.255578	2.467589
1.249486	0.084490	2.234606	-1.353362	-0.305416	-1.438442
-0.369653	1.649312	-1.913063	-0.226844	0.816498	1.043445
1.002408	-1.610540	1.712670	-1.565592	0.158938	0.999739
0.625476	-1.947181	0.028724	1.786534	-0.621669	-0.389811
0.982853	2.659186	1.750999	-0.820446	0.713333	0.270557
1.440172	2.803898	-2.572997	0.161765	-0.467507	1.150725
0.948398	-2.302428	-1.897953	-0.460181	-0.029125	-0.104483
0.129505	-1.644584	0.948754	0.751861	0.009231	-1.513564
-2.794508	2.522239	-2.832366	-2.269203	0.194962	0.269472
-1.198986	2.448793	-0.227260	-1.199171	-0.362135	0.146728
1.227958	1.552401	1.620409	0.316034	-0.931419	-0.754060
1.790402	-2.736343	0.125568	2.659915	0.565596	-0.483399
-0.414726	-0.565616	1.244907	0.619361	0.606660	-0.049729
-2.237537	-0.911749	-0.652030	-1.421481	0.672215	0.524919
-2.202705	0.016811	1.620354	0.120589	0.139017	-0.198934
2.331642	-2.734640	-0.920661	-0.315537	1.934442	-0.233275
2.766199	-0.657896	-1.482389	-0.117278	-1.633356	0.586016
-0.213357	-2.801615	1.098835	1.412279	0.934242	-1.795154
-1.568886	-1.267398	0.936618	-0.368467	1.286258	0.291909
1.582305	0.385922	-0.448981	0.514559	0.086555	0.509296
0.519035	1.332632	0.710915	-1.529821	2.529424	0.550647
-1.817066	1.918292	-2.760188	-0.585810	-1.055118	0.229344
0.985919	-0.676088	1.184126	0.994402	-0.321891	-0.244446
1.811822	-2.059726	2.579896	-0.335771	0.239285	0.172092
2.731450	-0.473283	-0.167766	-0.087978	-1.401268	-0.838653
2.123366	0.378431	-1.992044	-0.161990	0.488883	-0.889021
0.702055	-0.893621	2.477865	0.603298	-0.934760	0.654221
-1.978403	-0.464993	2.734202	0.490673	1.285694	-0.881428
0.811465	2.379832	0.102486	0.496442	-0.403270	-0.410905
-0.972603	-2.002289	1.539309	-0.550180	-0.186691	-0.017115
0.292644	0.512107	-1.724993	1.546650	0.057690	0.526451
0.071899	-0.842946	-1.556977	-1.511347	0.447242	0.473841
-0.563567	0.428174	-2.334469	-0.018627	-0.594889	-0.297335
-1.579589	0.453854	-0.298016	-1.503371	0.881505	-1.136532
0.252884	-2.234347	2.236273	-0.603570	-0.620855	-0.111557
-2.059754	1.095358	1.992167	0.800009	-0.945002	-0.012099
-0.330764	1.601806	-0.812262	-1.872528	1.522373	0.044135
2.690551	-2.099419	0.683538	-0.158635	0.910767	0.113298
0.002669	-0.616039	-2.662399	0.561907	-0.604025	2.040833
1.216841	1.489665	-0.662542	1.141466	-0.645407	0.181232
-2.359367	-1.415108	-1.630494	0.318024	-0.345182	0.180387
1.202946	0.739367	-1.367849	1.189778	1.052999	-1.744924
1.327730	-2.094254	0.879103	-0.188578	-1.367235	-1.698799
2.166973	1.184678	1.946357	0.062242	-1.254201	-1.030162
-1.221516	-1.071717	-2.441719	-0.033418	-0.873777	-0.262469
-0.954550	-1.103083	-1.086726	-0.423840	0.337122	1.257338
-2.030019	2.217313	2.103781	0.291338	1.199954	-1.211698
1.470395	-1.316787	-2.639031	0.131994	-0.427130	-0.296374
-0.395566	2.621858	-0.957300	0.074473	0.636052	1.816987
-2.918248	0.813243	1.194651	1.161113	1.398506	-0.179592
-2.018153	-2.494556	0.420945	-0.066604	1.731304	1.143556
-0.585571	-1.910433	-2.803342	-0.952346	-0.772852	1.463168
-0.932925	-2.530405	0.299389	0.136279	0.414512	1.729097
0.179923	0.224170	2.510442	1.161190	1.135101	0.271734
-1.179639	-0.869652	0.017923	0.323481	0.557367	-0.609010
2.135460	-1.187786	0.902827	-0.027761	-0.491299	0.021524
0.552099	-0.767256	0.241234	-0.705367	0.693693	-0.534110
-1.657077	1.722942	-1.601148	-0.444544	-0.037350	-0.767666
-0.079442	1.037401	1.792292	-0.191301	0.280003	1.355764
1.855271	1.797576	-2.083418	-0.080329	-2.114208	-1.256953
2.884311	1.768628	2.185498	-1.817646	-2.738213	-1.707005
-0.979693	1.941753	1.828744	0.112577	-0.992185	1.887196
-1.388636	-2.162127	-0.712862	1.616768	2.935531	-0.853823
-0.503265	-0.109883	0.067024	0.022806	-0.411560	0.021499
-2.390999	-1.922480	1.342638	-0.209309	-1.751540	1.454611
-0.064603	2.786698	2.648774	-0.512890	0.677474	-0.354447
0.181107	0.703387	-0.646590	-0.008819	-1.167194	1.534224
2.890709	1.912867	-1.308795	-1.339398	-0.545507	-0.869219
1.162994	0.071348	-2.431595	0.720679	-0.960230	-1.381307
0.356734	0.211782	1.231085	-0.777927	-0.582318	-0.100844
-2.553072	-2.386780	-0.528095	-0.422891	-0.413884	-0.354348
-1.438923	-2.836646	2.573853	-1.143069	-2.063870	1.082918
-2.400735	-1.601743	-2.630490	0.563207	-1.821277	-0.208681
1.663914	-0.102950	0.565604	0.206686	-0.445225	-0.026972
2.421518	-0.995265	-2.553904	-1.530008	0.458951	-0.463932
1.420068	-0.745336	-0.442265	1.090863	1.071021	-0.645547
1.415077	-1.590968	-1.192523	0.083659	-0.013103	0.498458
-2.388780	-1.310047	0.292050	-0.502646	-1.170349	0.365678
-0.943670	-0.750099	2.191012	-0.090701	-0.062069	-0.711172
-0.429456	-1.525160	-0.285430	-2.291429	-1.178331	-1.002185
-1.007801	0.851587	-1.373283	2.000213	0.042493	1.233843
-0.492996	1.300936	0.185999	0.556860	-1.207645	1.063652
1.274427	-2.545341	-0.743132	-0.946559	-0.798300	0.269674
0.499143	-0.243974	-0.826834	0.354210	-1.463321	-1.651511
0.642291	1.686146	-1.508199	0.468686	2.836161	-0.550723
1.492429	2.347045	-1.325865	0.208567	0.052841	1.655853
-0.586122	-0.100326	-1.159607	1.638640	1.339160	0.762005
-0.638456	-2.874188	-1.984862	-1.600452	-0.053074	0.853067
2.698168	-0.196514	0.997737	0.422487	0.779966	0.412200
-2.011424	2.893400	-1.196496	1.564246	1.434988	-1.907054
2.581384	0.034458	2.232551	2.164172	-0.017942	-1.016264
2.110408	2.132058	-0.448427	0.507202	2.600190	0.007403
-1.797795	2.850435	1.297871	0.862852	0.364119	1.364103
2.863814	-2.531605	-1.776799	-1.314018	-1.479402	-0.732459
-0.220353	2.430181	0.196794	-0.739749	0.236801	-1.746411
1.039344	1.462756	2.855710	0.826904	-0.034152	0.866296
100

2.307618	2.214321	1.443904	-0.227160	-0.762944	-0.316726
2.482993	-1.609188	-0.505098	1.055383	0.759891	-0.153751
-0.771354	1.597396	-2.670573	0.116308	0.133827	1.347301
-1.130876	0.467072	2.693660	-0.165357	1.869897	-0.133890
1.088395	-0.011715	1.894914	-0.767145	-0.684521	-1.003405
-0.419109	1.857710	-1.717674	-0.097773	1.628977	1.330390
0.928768	-1.629079	1.685238	0.479581	-0.797387	-0.753150
0.792704	-1.871040	-0.162785	-0.038331	1.874667	-0.727439
0.783838	2.838610	1.792411	-1.157556	1.099064	0.029611
1.509977	2.658039	-2.316728	0.579241	-1.003566	1.538134
0.891511	-2.298104	-1.876261	-0.038333	0.004141	0.420125
0.266179	-1.571816	0.710424	0.708067	1.021400	-0.723789
2.632659	2.493696	-2.830408	-2.094290	-1.019810	-0.921110
-1.492722	2.397086	-0.264712	-1.277180	0.076245	-0.338005
1.122461	1.456367	1.456094	-0.846718	-0.339258	-0.694661
2.170461	-2.581138	0.034973	-0.118651	0.667791	-1.392585
-0.392527	-0.652831	1.133471	-0.137425	-1.144113	-1.021230
-2.246760	-0.868124	-0.689008	0.593712	-0.117835	-0.327725
-2.032778	0.009855	1.496430	2.082261	-0.241960	-1.670072
2.095821	-2.490866	-1.082644	-1.789163	-0.370927	-2.324621
2.616752	-0.935845	-1.309971	-1.087516	-1.442625	1.072147
0.197597	-2.623240	0.860138	2.430247	0.457219	-0.906149
-1.581467	-1.061840	1.077506	0.022790	0.785199	0.808437
1.641551	0.443134	-0.385598	0.118669	0.365721	0.010818
0.277534	1.878804	0.860094	-0.916802	2.820546	0.942569
-1.976182	1.738722	-2.781088	-0.902262	-1.010015	-0.783070
1.114436	-0.752312	1.198333	0.031532	0.023850	-0.558186
1.751672	-2.146424	2.500691	-0.529276	-0.553094	-0.501301
2.528416	-0.692413	-0.134477	0.583155	-0.267543	1.752443
2.214812	0.394923	-2.258284	1.089099	-0.648303	-1.994028
0.719196	-0.839431	2.560631	-0.543277	0.984584	-0.497879
-1.885986	-0.252839	2.534171	-0.006557	0.542086	-1.000330
0.991868	2.322372	-0.035288	0.876660	-0.089953	-0.748181
-0.987910	-1.936552	1.519376	1.193167	2.436130	0.361914
0.481361	0.463200	-1.582802	1.928475	-0.143257	1.443846
-0.243220	-1.055396	-1.471367	-0.421531	-1.853625	0.508865
-0.459865	0.355258	-2.098420	-0.200466	-0.521479	0.873476
-1.780849	0.591145	-0.556560	-0.562193	0.539336	-1.427473
0.026948	-2.228239	2.141107	-2.036733	-0.505315	-0.288914
-1.880545	0.976813	2.043315	1.165405	-0.264831	0.657305
-0.630933	1.843304	-0.596842	-1.343264	1.179168	1.324990
2.703801	-2.003872	0.778801	1.139369	0.995975	2.667226
0.076768	-0.577073	-2.496888	0.380932	0.956068	-0.076354
1.413392	1.460747	-0.525226	0.803926	0.423479	0.461445
-2.198467	-1.606641	-1.508116	0.410162	-1.161077	0.169834
1.447683	0.965859	-1.553132	-0.417439	0.613382	1.207981
1.378068	-2.342278	0.769007	0.272448	-1.035575	0.375741
1.910568	0.472630	1.642101	-0.552428	-3.744259	-1.796363
-1.275314	-1.145380	-2.493107	-0.407488	-0.063259	-0.242569
-1.194367	-0.742878	-1.098943	-2.506395	2.735922	-0.368204
-2.115435	2.144085	2.013658	0.160209	-0.418280	-0.310966
1.241628	-1.424104	-2.450474	-0.944441	-0.794463	1.861948
-0.418184	-2.782310	-0.899871	-0.323204	2.829608	-0.512109
-2.674021	1.077905	1.222476	1.271686	0.507737	-0.405923
-1.983932	-2.237152	0.568973	0.264934	0.406263	0.654701
-0.711504	-2.174542	-2.571876	-0.450650	-1.601947	0.791510
-0.959942	-2.377732	0.550761	0.183082	0.559693	0.664363
0.290918	0.373850	2.714790	0.248979	0.361866	1.643999
-1.379265	-0.836235	-0.031938	-1.294579	-0.061311	0.361912
2.029211	-1.139738	0.861067	-0.498730	0.382947	-0.468343
0.429126	-0.674339	0.103178	0.345282	-0.159637	-0.596569
-1.658411	1.751875	-1.720996	0.619532	0.310608	-0.279544
-0.129805	1.159795	2.012601	-0.139499	0.692063	0.836588
1.995789	1.466410	-2.299758	2.586661	0.054670	-1.405079
-2.880429	1.449595	2.144039	-0.372343	-1.720718	1.210051
-1.000573	1.774746	2.219158	-0.812299	-0.374848	1.185666
-1.481396	-1.918125	-0.951623	-1.094479	0.157601	-0.684750
-0.391627	-0.045581	0.103933	-0.611649	0.366719	0.974022
-2.353389	-2.204366	1.673294	0.066448	-0.978001	1.623845
-0.348344	2.619545	2.740413	-1.901003	-1.107429	0.649465
0.272765	0.668727	-0.327833	1.958018	0.891097	1.112423
2.553873	1.882461	-1.498137	-2.030195	0.243093	-0.947419
1.206318	-0.136572	-2.735304	0.115829	-0.877199	-1.390354
0.376844	0.261776	1.212560	0.345799	0.795574	-0.382980
-2.599867	-2.348020	-0.517734	0.112482	0.403820	0.247685
-1.515859	2.687432	2.879048	0.280004	-1.290446	1.766285
-2.281770	-1.966023	-2.739961	0.724319	-1.847676	-0.353642
1.765798	-0.210599	0.491970	0.583869	-0.318380	-0.513612
2.385106	-0.805315	-2.594916	-0.065343	1.116288	-0.003777
1.627286	-0.648645	-0.530258	-0.606694	-0.313970	-0.900810
1.466954	-1.589058	-1.063028	0.278997	-0.220532	0.778907
-2.548620	-1.297178	0.251321	-0.467439	2.271619	-1.199368
-0.995302	-0.803027	2.100585	-0.435877	-0.294604	-0.338315
-0.345584	-1.808088	-0.120392	1.718306	-1.098811	1.476826
-0.772200	0.940153	-1.255186	0.349247	0.087631	0.192353
-0.452343	1.034152	0.332932	-0.248271	-1.123142	0.665230
1.042156	-2.721998	-0.757277	-1.156798	-0.788642	-0.536019
0.739795	-0.427513	-0.979018	1.069726	-0.553683	-0.590193
0.637113	2.132984	-1.661253	-0.271119	1.843753	-0.941161
1.604437	2.364668	-1.218030	1.337258	-0.807317	-0.871624
-0.299318	-0.038494	-0.966322	0.814218	-0.912481	0.385049
-0.866792	2.903384	-1.881807	1.355442	-1.340421	-0.604618
2.734971	-0.121627	1.031798	-0.049969	0.209310	-0.230634
-1.779224	-2.684889	-1.565609	-1.656211	1.666953	-0.967223
2.882876	0.092694	2.091159	0.444023	0.694613	0.258363
2.340836	2.356789	-0.416602	1.782532	-0.873152	-0.324375
-1.503025	-2.838961	1.368632	0.858444	-1.111061	-0.149158
2.718963	-2.788316	-1.988855	-0.569353	-0.693806	-0.061968
-0.289587	2.369030	0.173443	0.100573	0.109476	1.601015
1.096321	1.416628	2.920926	-0.847635	-0.489082	-0.585112
100

2.278924	2.024004	1.418938	-0.081935	-1.085809	0.099665
2.571163	-1.540622	-0.357260	0.510920	1.806430	1.025403
-0.749421	1.553670	-2.361065	1.215144	-0.309316	0.862955
-0.926249	0.821276	2.819213	1.536912	1.098051	0.820861
0.853869	0.025820	1.981277	-0.971180	1.169002	0.285986
-0.251964	1.861541	-1.319986	2.080783	-0.610499	1.282621
0.990108	-1.895151	1.581751	0.551953	-0.605722	-0.432770
0.855449	-1.551684	-0.261128	0.515074	0.762973	0.074988
0.594103	-2.767067	1.779911	-0.538838	1.548541	0.588925
1.693936	2.516956	-2.197595	1.004155	-0.630751	-0.074730
0.875633	-2.394323	-1.784901	-0.706572	0.832770	-1.200326
0.404176	-1.489013	0.818296	-0.282347	-1.531306	0.077674
2.229976	2.339027	2.723318	-1.692760	0.399358	-2.154315
-1.816172	2.541696	-0.308232	-1.789406	1.196032	-0.202766
0.958235	1.318940	1.356178	-0.837430	-1.068267	-0.324500
2.036123	-2.540752	-0.221268	-1.548319	-1.094779	-1.171948
-0.450595	-0.853862	0.923885	-0.396327	-0.083039	-1.260672
-2.370791	-0.962270	-0.851744	-1.352910	-0.777860	-0.573517
-1.690465	0.084516	1.178256	1.277194	1.350155	-1.255525
1.796492	-2.588016	-1.462356	-0.452983	-0.977631	-1.128581
2.407638	-1.009881	-1.350217	-1.061037	0.066998	-0.723954
0.461858	-2.583774	0.626837	0.176309	-0.050471	-1.167906
-1.599294	-1.012954	1.146179	-0.366656	-0.698960	-0.233140
1.620586	0.428631	-0.500052	0.059291	-0.171841	-1.785668
0.319020	2.279087	1.318681	-0.045095	1.000082	1.831004
-2.114041	1.481991	2.906298	-0.159713	-0.971614	-0.046830
1.047677	-0.652991	0.970257	0.061711	1.366413	-0.177797
1.589051	-2.252795	2.399948	-0.980492	-0.635602	-0.478144
2.618871	-0.454065	0.002746	0.825171	0.634964	-1.034630
2.376799	0.372106	-2.670214	0.724899	0.490049	-2.227859
0.451790	-1.038437	2.365109	-1.734616	-2.073438	-0.686424
-1.898161	-0.128214	2.339560	0.051287	0.978676	-0.942589
1.080568	2.428159	-0.020730	0.192601	1.078263	0.790851
-0.726277	-1.583161	1.506418	1.092905	-0.278050	-0.430249
0.628018	0.482623	-1.351556	-0.101285	0.426327	1.009308
-0.310175	-1.371605	-1.357322	-0.172948	-0.936217	0.578182
-0.490702	0.272094	-1.970059	-0.288096	0.069494	0.768560
-1.817246	0.682338	-0.864734	-0.051706	0.970050	-1.397786
-0.366011	-2.362562	2.109073	-1.810665	-1.174245	0.315204
-1.892844	0.949135	2.025561	-0.818617	-0.696459	-0.624759
-0.890898	1.884568	-0.451923	-1.610780	-0.122359	1.554933
-2.908255	-1.814492	1.248198	0.967639	1.168767	2.056324
0.171593	-0.480627	-2.399235	0.973616	-0.531709	0.724207
1.636022	1.526139	-0.394761	1.512311	-0.409097	2.247070
-2.561800	-1.545365	-1.728843	-2.341068	0.802760	-1.277794
1.556380	1.188367	-1.411956	1.091250	1.218071	-0.368920
1.566364	-2.464426	0.839025	2.085277	-0.276921	0.240052
1.865796	-0.069408	1.412737	-0.657449	-2.162393	0.986198
-1.349718	-1.190195	-2.547504	-0.334471	-0.422667	-0.345916
-1.486572	-0.161332	-1.241351	-0.355261	2.529779	-1.051729
-2.099221	2.097503	1.936083	-0.729961	-0.057633	-0.611111
1.105090	-1.401074	-2.163295	-0.511886	0.842407	1.307320
-0.457429	-2.276891	-1.002167	0.486875	1.386950	-1.037540
-2.407400	1.086612	1.158641	1.104248	-0.213116	-0.143683
-2.028887	-2.105506	0.702871	0.394431	0.077471	0.837003
-0.831794	-2.263063	-2.655028	-0.888071	0.437654	-1.375216
-0.852259	-2.321409	0.717527	-0.055597	1.020953	1.559976
0.330949	0.501366	-2.856853	-0.132356	0.664970	1.093511
-1.452534	-0.831090	0.078451	1.282845	0.548980	0.121646
2.071868	-1.243282	0.733607	0.306611	-0.543396	-0.969269
0.571652	-0.583503	-0.067698	0.534728	1.814120	-0.722174
-1.470984	1.870385	-1.749933	0.167306	1.002067	1.121972
-0.115521	1.262929	2.199429	0.174127	0.485288	1.115898
2.342314	1.341635	-2.673041	-0.176595	-0.611831	0.438388
2.882606	1.159670	2.439565	0.642572	-0.670086	-0.433421
-1.196014	1.750143	2.380391	-0.168891	-0.085402	1.107478
-1.353014	-1.883523	-0.680331	-0.086758	0.691676	1.956431
-0.543348	-0.109336	0.260106	-0.611246	-0.395080	-0.023761
-2.281071	-2.411596	1.967275	0.751260	-1.230493	1.376579
-0.536419	2.443852	2.836948	0.391865	-0.497292	0.076666
0.715572	0.781767	-0.190803	1.791018	0.401015	0.677126
2.593144	1.869069	-1.658905	0.834624	-0.211780	-0.824263
1.373157	-0.158354	-2.852957	0.791709	0.027722	-0.381594
0.309749	0.455893	0.958113	-0.341008	0.807110	-1.613619
-2.405827	-2.349861	-0.477126	1.572154	-0.154654	0.179274
-1.616304	2.463665	-2.567801	-1.933249	-1.010491	1.750347
-2.086795	-2.355506	-2.786026	1.228965	-1.769330	-1.010178
1.569232	-0.063640	0.387780	-1.919841	1.075873	-1.545410
2.319616	-0.704824	-2.580427	-0.511750	-0.887365	0.173118
1.724858	-0.727411	-0.492365	0.462419	-0.331172	0.737938
1.548999	-1.662739	-1.064329	0.747236	-0.050270	-0.865705
-2.389156	-1.246627	0.328193	-0.499866	-0.405907	1.062085
-1.089699	-0.720693	2.120521	-0.293180	1.418093	0.853610
-0.077314	-2.022986	-0.023900	1.071270	-0.789531	0.210539
-0.742193	0.950155	-1.126470	-0.191042	-0.517986	0.889177
-0.491306	1.012365	0.504389	-0.025394	0.521056	0.794374
0.790457	-2.791420	-0.819082	-1.643562	-0.122358	1.308619
0.721879	-0.679903	-1.187295	0.128229	-2.388398	-1.075476
0.600588	2.511986	-1.813909	-0.581577	0.990987	-0.551726
1.459084	2.292217	-1.063188	-1.422433	0.170326	1.083643
-0.236789	-0.177336	-0.904563	-0.330449	-0.362985	0.410432
-0.763617	2.700725	-1.984654	0.188863	-0.845174	0.285677
-2.856624	-0.162191	0.923173	2.818482	-0.232123	0.139777
-2.126938	-2.620965	-1.824991	-1.316770	-0.844604	-0.442530
-2.840177	0.244984	2.097825	0.555431	-0.207595	-0.752938
2.633506	2.174375	-0.559753	0.994141	-0.684657	-1.003669
-1.365845	2.770498	1.399855	0.610271	-1.007000	0.321545
2.674871	2.901056	-1.973527	0.398985	-1.015633	-0.286824
-0.431719	2.730797	0.309171	-0.532616	1.468846	-0.099185
0.930281	1.296130	2.812290	-0.492007	-0.287203	-0.660083
100

2.284822	1.789065	1.488362	0.162420	-1.293177	0.310327
2.551777	-1.429911	-0.307486	-0.644715	-1.008565	-0.899672
-0.382433	1.610864	-2.079968	1.979663	-0.275235	1.281153
-0.760791	0.709783	2.911583	-0.170978	-0.793263	0.464821
0.666218	0.275740	2.024291	-0.842001	1.337333	0.238462
0.128048	1.774229	-1.104166	1.650092	-0.571208	1.200741
1.314001	-1.611349	1.392414	1.787077	1.813797	-1.147745
0.957281	-1.493363	-0.206513	-0.147956	-0.663476	1.012850
0.409452	-2.502652	2.103287	-1.448635	1.290021	1.408098
1.688957	2.307325	-2.230657	-1.632553	0.785472	0.570181
0.641337	-2.148787	-1.955480	-1.281048	0.706928	-0.241877
0.280113	-1.674297	0.788956	-0.589360	-0.481975	0.123463
1.912383	2.391458	2.301424	-1.650241	0.178816	-1.711871
-2.048562	2.534469	-0.336549	-0.833965	-0.842270	-0.270707
0.784712	1.139902	1.361817	-0.860784	-0.588365	0.417317
1.681845	-2.710634	-0.509853	-1.604531	0.068030	-1.140919
-0.467951	-0.919659	0.729331	0.109322	-0.411276	-0.520934
-2.545752	-1.074262	-0.925828	-0.032005	-0.225178	-0.904853
-1.403995	0.345376	0.982154	2.079169	1.488064	-0.797307
1.800600	-2.740077	-1.507988	-0.052707	-0.713475	-0.687869
2.206445	-0.835845	-1.426933	-0.892691	1.526749	0.191576
0.623989	-2.676902	0.723057	0.111078	0.275676	1.559692
-1.641648	-1.156444	1.126361	0.203272	-0.675525	0.025230
1.741381	0.377478	-1.096780	0.489286	-0.431932	-2.924252
0.200179	2.182079	1.496370	-0.715722	-0.670675	0.805141
-2.072998	1.324481	-2.765152	-0.181385	-1.631975	0.865113
0.791991	-0.612322	1.028135	-1.737498	-0.108726	0.043613
1.438750	-2.446263	2.373017	-0.348010	-1.045814	0.007183
2.825265	-0.267240	-0.165768	1.008129	1.010925	-0.609819
2.546174	0.207905	2.681455	0.575553	-0.763863	-2.022961
0.226167	-1.431152	2.261793	2.039303	-1.427424	1.315471
-1.860625	-0.109318	2.303516	-0.026838	-0.704463	0.150127
1.250945	2.472016	0.155212	1.492920	-1.409858	0.522284
-0.613531	-1.535542	1.747253	-2.355701	-0.204805	-0.376046
0.577657	0.529752	-1.102784	-0.493429	0.076456	1.450240
-0.294714	-1.064854	-1.420733	-0.676168	1.234941	-1.046378
-0.462584	0.307765	-1.865866	1.130652	0.382146	0.275957
-1.950494	1.200797	-0.989289	-1.353851	1.696241	0.008844
-0.716124	-2.728346	2.114219	-1.124398	-1.592136	-0.442353
-1.834746	1.022038	2.005205	0.871340	1.341160	-0.336512
-1.194228	1.846411	-0.180342	-1.338037	-0.335961	1.116372
-2.705290	-1.544695	1.596277	1.304477	1.412911	1.314884
0.370393	-0.582980	-2.210235	0.293162	0.130271	1.161737
1.915758	1.443910	0.037111	1.169763	-0.298930	1.802054
2.907693	-1.519701	-2.059252	-1.436921	-0.396041	-1.545969
1.769621	1.465059	-1.481876	0.837783	1.495803	-0.184655
1.923620	-2.496896	0.827805	1.378911	0.017731	-0.328235
1.842165	-0.453140	1.658925	0.045174	-1.816166	1.324366
-1.418844	-1.273700	-2.644724	-0.494107	-0.055318	-0.597431
-1.383319	0.016970	-1.549723	0.086632	0.469913	-1.063113
-2.265636	2.029589	1.860392	-0.540201	-0.411280	-0.209033
1.244645	-1.157388	-2.202011	2.394484	0.819934	-1.491571
-0.413184	-2.555169	-1.126458	-0.646699	-1.733552	-1.103225
-2.343354	1.040845	0.952130	0.065475	-0.378663	-0.971872
-1.948173	-2.217267	0.915569	-0.861690	-0.457208	1.049949
-0.909185	-2.179066	-2.814473	1.600251	0.800656	0.052571
-0.878908	-2.174614	0.822699	1.125017	0.519327	-0.179513
0.196848	0.491174	-2.619896	0.154329	-0.113580	0.916580
-1.252337	-0.759382	0.087438	0.288436	1.155176	0.249722
2.054055	-1.294344	0.609163	-0.915648	0.027277	0.597013
0.543546	-0.190246	-0.248680	-0.703761	1.516261	-1.157526
-1.441028	1.971735	-1.251058	1.081087	1.684415	2.202347
-0.034533	1.441077	2.376271	0.055996	1.215843	0.613835
2.077417	1.396426	-2.550468	-0.819904	-2.308767	-1.286034
-2.913445	1.257334	2.121127	-0.321287	0.522689	-1.494594
-1.236165	1.773971	2.506348	-0.008455	0.340316	0.304040
-1.320040	-1.693052	-0.227648	0.902523	0.193246	2.258112
-0.605983	0.194552	0.043632	-0.041867	2.399864	-0.843350
-2.159221	-2.705518	1.853203	0.573709	-1.559099	-1.726469
-0.394546	2.427772	2.869251	0.952473	-0.110760	0.480133
0.853470	0.999443	-0.088985	-0.167125	2.375563	-0.508626
2.775254	1.771556	-1.682200	1.488452	-0.787603	-0.326016
1.437017	-0.136630	2.904162	0.001272	0.098881	-0.512879
0.351518	0.377657	0.644586	0.123144	-1.442323	-1.396268
-2.314320	-2.092336	-0.466910	-0.673838	2.067357	-0.036113
-1.969410	2.284054	-2.406266	-1.338528	-1.048036	1.209845
-1.876114	-2.608251	-2.832842	-0.600576	-1.052126	0.251784
1.508228	0.163361	0.214587	1.519581	0.289350	0.178210
2.207837	-0.907762	-2.500330	-0.764378	-0.763508	0.149365
1.688571	-0.781273	-0.393665	-0.106790	0.588832	0.153283
1.552838	-1.721930	-1.162951	-0.635393	-0.623081	-0.088845
-2.542123	-1.160154	0.503236	-0.620023	0.343185	0.795631
-0.897805	-0.651037	2.196931	1.595072	-0.099809	0.247987
-0.129356	-2.005418	-0.161687	-1.330034	1.232534	-0.270360
-0.777016	0.841888	-0.920577	-0.086600	-0.368555	1.189165
-0.607629	1.176961	0.574774	-0.812237	0.851459	0.117573
0.474382	-2.691405	-0.605954	0.317387	-0.393807	0.891067
0.696975	-0.994694	-1.050947	0.159003	-0.329321	2.214960
0.446332	2.491233	-1.885296	-0.655389	-0.049203	-0.277466
1.243273	2.288660	-0.943360	-1.230120	-0.206676	0.305492
-0.282218	-0.217268	-0.874476	-0.229261	0.407324	-0.345945
-0.671568	2.601150	-1.865870	0.343820	0.074565	0.692053
-2.276912	-0.257916	0.961495	2.765569	-0.857716	-0.290318
-2.159203	-2.731081	-1.676968	0.747821	-0.187437	1.253401
2.892568	0.014802	1.750853	-1.012142	-1.046074	-2.126025
2.763910	2.094068	-0.730794	0.426421	0.105761	0.241053
-1.245147	2.624615	1.479953	0.002862	-1.013824	-0.135360
2.675027	2.780815	-2.137010	-0.352214	-0.284740	-1.248661
-0.472193	2.843498	0.171420	-0.048025	0.367457	-0.870574
0.991807	1.369109	2.624656	0.999061	0.327171	-0.884348
100

2.146140	1.645505	1.314376	-0.885854	-0.529318	-0.879891
2.333298	-1.627090	-0.505869	-1.452805	-0.870569	-1.458272
0.008509	1.444257	-1.908170	1.883565	-0.863572	0.304993
-0.869841	0.630856	-2.856383	-0.481068	-0.134914	0.466198
0.496513	0.422863	2.222519	-0.777048	0.398551	0.704483
0.212376	1.643113	-0.899656	-2.278018	1.201511	0.346898
1.271211	-1.461084	1.412368	-1.702937	-0.410543	0.255170
0.976967	-1.804433	0.157022	0.774886	-1.756353	1.259364
0.144201	-2.568282	2.296759	-0.243251	-0.759676	0.836715
1.277424	2.257566	-2.315445	-1.831525	-0.916036	-1.098066
0.412335	-2.004711	-1.943135	-1.077091	0.756442	0.248804
0.291276	-1.730198	0.911497	0.875966	-0.087843	1.368172
1.589736	2.285595	2.011380	-1.614856	-0.900875	-1.395444
-2.132518	2.438854	-0.430057	0.309721	0.076761	-0.550685
0.604493	1.182132	1.340112	-0.919014	0.679282	-0.388840
1.538933	-2.544904	-0.489314	0.529675	0.746814	0.814287
-0.498937	-0.952543	0.705108	-1.068275	-0.046034	-0.245213
-2.594123	-0.987884	-1.191315	-0.740133	0.843301	-1.476269
-1.109225	0.519795	0.936683	0.340626	0.231282	1.003443
1.841721	-2.711420	-1.627009	0.250599	0.494042	-0.165490
2.044895	-0.661174	-1.365725	-0.458316	-0.403949	0.070623
0.689258	-2.752443	0.994022	0.502563	-0.814233	1.180492
-1.582521	-1.272371	1.000416	0.080814	0.481536	-1.341659
1.769990	0.334666	-1.649701	-0.332793	0.634956	-2.869844
0.053283	2.120447	1.627905	-0.758323	0.227538	0.330681
-2.103409	0.942960	-2.695389	-0.037907	-1.734877	0.007863
0.491508	-0.721180	1.034624	-1.001273	-0.678165	0.160464
1.308006	-2.498478	2.388442	-1.138100	0.374172	0.124464
-2.867231	-0.187579	-0.271061	0.544965	-0.137402	-0.408122
2.562768	0.103961	2.432192	-0.185394	-0.229213	-1.458330
0.679508	-1.387338	2.582794	2.369748	0.802988	1.689323
-1.878855	-0.217825	2.269811	-0.062087	-0.494247	-0.440252
1.481407	2.202221	0.272447	0.719683	-0.612737	0.393045
-0.935977	-1.746335	1.796260	-0.369532	-1.530833	1.890199
0.454087	0.702598	-1.091705	-0.173553	-0.554527	-0.826548
-0.489989	-1.021445	-1.690874	-1.137105	-0.086514	-1.164321
-0.259083	0.471910	-1.792725	0.639289	0.947485	-0.663556
-2.305458	1.441992	-0.919594	-1.462541	1.485051	0.615910
-0.879137	-2.860046	2.189372	-2.085132	-1.013158	0.233136
-1.669388	1.083454	1.891557	1.108896	-0.706802	-0.615882
-1.457659	1.748879	0.021828	-1.637092	-0.480032	0.548048
-2.391828	-1.239739	1.771000	1.726308	1.720711	0.476929
0.438413	-0.423818	-1.971999	0.449433	1.491889	1.278883
2.119486	1.358698	0.363946	1.108525	-1.040573	1.067953
2.803154	-1.795678	-2.171132	-0.308602	-1.694765	-0.090794
1.921732	1.726504	-1.481372	0.918246	1.245853	0.040726
2.116614	-2.438361	0.722911	0.591485	0.580485	-0.768771
1.882968	-0.727613	1.975746	0.789025	-0.469643	2.137863
-1.524064	-1.228325	-2.802537	-0.342279	0.281217	-1.052736
-1.410570	0.100958	-1.682929	0.221152	0.540238	-0.487180
-2.300359	1.909265	1.790576	-0.527043	-1.261435	-0.393193
1.172557	-1.190234	-2.246698	-0.896731	-0.581234	0.209654
-0.424546	-2.623158	-1.019943	0.458595	0.250492	0.864597
-2.296362	0.930342	0.862996	0.480749	-0.694675	0.026460
-2.087854	-2.152417	0.873190	-0.957982	0.155262	-0.991691
-0.518634	-2.092230	-2.819673	2.065189	0.297664	-0.101843
-0.607540	-2.174288	0.804860	1.059675	-1.193801	0.290223
0.513018	0.541070	-2.642461	1.878044	0.587954	0.406304
-1.286087	-0.320115	0.103079	0.487951	2.041201	-0.865131
2.113641	-1.162806	0.420689	0.511358	0.960071	-1.261408
0.645109	-0.158929	-0.305302	0.925283	0.375337	0.630122
-1.133803	2.494197	-0.910540	1.338886	2.457661	1.769916
-0.067893	1.502851	2.529165	-0.079726	-1.034252	1.004406
1.941318	0.930281	-2.802485	-0.425087	-2.536201	-1.039566
-2.860645	0.991166	2.080162	0.651114	-1.919831	0.139322
-1.182463	1.930928	2.614798	0.421388	1.027064	0.622613
-1.391318	-1.739466	0.151036	-1.972713	0.251833	0.854937
-0.528555	0.460213	0.068773	1.024172	0.553686	-0.136001
-2.063868	-2.841654	1.787750	0.787332	0.629063	0.440059
-0.170892	2.471669	-2.842934	1.615539	0.932890	-0.141767
0.889416	1.427397	-0.131205	1.164279	1.491889	0.960896
-2.864205	1.523042	-1.820726	-1.002423	-2.422148	0.003797
1.428767	-0.128678	2.798865	-0.089012	0.107400	-0.461011
0.322175	0.317382	0.650833	-0.070257	0.635393	1.099227
-2.377942	-1.788346	-0.370117	0.093731	1.099135	1.054324
-2.091975	2.189317	-2.160251	1.345128	0.906751	0.323871
-1.970343	-2.783081	-2.818594	-0.306834	-0.953976	0.004533
1.741851	0.250955	0.239728	0.923072	0.652102	0.144728
2.432163	-0.671490	-2.814851	1.332801	1.404496	-1.716392
1.645435	-0.661699	-0.376894	-0.541846	0.278716	0.135587
1.414737	-1.736542	-1.186486	-0.681057	0.655420	-0.432365
-2.705904	-1.207857	0.573906	-0.332903	-0.325660	0.302407
-0.626246	-0.582412	2.304280	1.129073	0.315784	0.575721
-0.244847	-1.728547	-0.223282	0.626896	1.188779	-0.335928
-0.839521	0.970765	-0.948258	-0.392985	1.482176	-1.210991
-0.593660	1.513314	0.635582	1.358248	2.555915	0.709253
0.464953	-2.816070	-0.394080	-0.879636	-0.497646	1.170789
0.690408	-1.022834	-0.888650	-0.157315	-1.266716	-0.435672
0.370791	2.514851	-1.888594	-0.576946	0.392578	0.547390
1.127760	2.308198	-0.956906	0.688046	0.949175	-0.221314
-0.434332	-0.135603	-0.852879	-0.786991	-0.288697	0.911897
-0.795109	2.399515	-2.017208	-1.535062	-1.330551	-0.329827
-1.807250	-0.246900	0.965342	0.887363	0.787462	1.205814
-2.016668	-2.819637	-1.425565	0.722503	-0.737155	1.289484
2.785936	-0.220304	1.170076	-0.257179	-1.352021	-3.017718
2.707047	2.088640	-0.652934	-1.433412	-0.500370	-0.096857
-1.372876	2.168082	1.180043	-0.424394	-2.664079	-1.659847
2.671451	2.688223	-2.358381	0.192563	-0.674268	-0.860266
-0.468788	-2.911197	-0.024898	-0.399298	0.517967	-0.739415
1.193357	1.407999	2.420477	0.384584	0.008699	-1.259094
100

2.008730	1.569465	1.424027	-0.549885	-0.637164	0.568565
2.230080	-1.674914	-0.742303	0.950053	0.622860	-0.377568
0.420310	1.516362	-1.952770	1.086800	0.727329	0.458059
-0.977754	0.639311	-2.790037	-0.959076	0.301712	-0.371627
0.351267	0.498341	2.162294	-0.723981	-0.026429	-0.581165
-0.250645	2.036300	-0.770731	-1.955087	2.293921	0.696934
1.232398	-1.478433	1.611489	0.663902	0.063743	1.359186
1.126157	-2.065023	0.427321	0.190305	-0.836737	1.889919
0.122298	-2.625264	2.105052	-1.039323	-0.087007	-2.328759
0.989171	2.033628	-2.561853	-0.967512	-0.925999	-1.624124
0.210125	-1.839730	-1.848032	-0.294028	1.545717	0.220144
0.250468	-1.892035	1.136713	0.278236	-0.431348	1.002507
1.224126	2.352143	1.726107	-1.224176	-0.602744	-0.019781
-2.171938	2.527664	-0.341384	-0.682840	0.624264	1.689964
0.446886	1.384422	1.345716	-0.515433	1.358227	0.513352
1.679244	-2.609664	-0.420221	0.830657	-1.181298	-0.098274
-0.647298	-0.998611	0.557276	0.445375	-0.188084	-1.382661
-2.814066	-0.849266	-1.422164	-1.247872	0.525479	-0.834409
-0.885710	0.684535	1.007286	1.875431	0.733668	-0.968046
1.884954	-2.662923	-1.620205	0.416804	-0.272351	0.202479
1.961967	-0.827758	-1.431715	-0.576930	-1.059791	-0.785490
0.760844	-2.880923	1.196873	-0.942240	0.938276	-0.327413
-1.567251	-1.145593	1.014672	0.205339	-0.273515	-0.498317
1.693221	0.385487	-2.067175	1.341245	-1.132661	0.316991
-0.113070	2.237394	1.763129	-0.803063	0.970034	1.340329
-2.085419	0.609232	-2.744058	0.191734	-1.656811	-0.472298
0.360627	-0.661650	1.070641	-0.604470	0.079499	0.171336
1.129019	-2.396029	2.389739	-0.042863	0.764586	-0.084129
-2.804980	-0.305484	-0.317650	0.227122	-1.018294	-0.612357
2.370731	0.071499	1.959176	-1.031282	-0.442533	-2.745073
1.098661	-1.280211	2.653464	1.617360	0.127191	-0.408411
-1.791962	-0.089624	2.310415	1.118018	2.219995	1.802923
1.771249	2.359062	0.441531	1.688111	1.305447	0.940561
-0.998719	-1.988459	2.149993	-0.163088	-0.129955	1.523998
0.518766	0.579607	-1.103813	0.086112	0.713241	0.881213
-0.642033	-0.998603	-1.911153	-0.354221	0.291237	-1.054009
-0.338637	0.410069	-1.996861	0.832263	-0.224683	-0.599453
-2.463018	1.579857	-0.842552	-0.648062	0.015472	-0.056135
-1.063280	2.852203	2.265276	0.912770	-0.899563	0.579929
-1.503833	0.931453	1.882287	0.329766	-0.499069	1.025996
-1.740039	1.543958	0.000621	-1.390942	-1.489890	-1.219613
-2.212138	-1.048678	1.819526	-0.695275	-0.160776	0.650473
0.569009	-0.208541	-1.704256	0.968112	-0.482483	0.522526
2.419917	1.182942	0.219750	1.889254	0.198192	-1.017758
2.711577	-2.151795	-2.151362	-0.588876	-1.892180	0.271623
2.010309	1.992073	-1.624394	0.002332	1.377769	-1.701264
2.177835	-2.264949	0.496504	0.339221	1.091251	-1.373967
1.952111	-0.958171	2.226908	0.075721	-1.729601	0.430287
-1.548729	-1.153127	2.753385	0.077175	0.495312	-1.879482
-1.314949	0.239821	-1.774940	-0.219089	0.647145	-0.275848
-2.357932	1.820068	1.647328	0.056093	0.727265	-1.089498
1.048157	-1.141454	-2.047249	-1.025191	2.046538	0.178056
-0.095001	-2.324939	-1.066298	1.533615	1.095174	0.833049
-2.149330	0.833181	0.934624	0.607347	0.629364	0.267644
-2.328868	-2.275575	0.754278	-0.752988	-1.655683	-0.415642
-0.200764	-1.985671	-2.797578	1.100489	0.569852	-0.315737
-0.663414	-2.333656	1.010352	-2.028988	-0.136206	2.636675
0.839670	0.720723	-2.406292	-0.463234	1.183663	-0.199323
-1.229281	-0.004084	-0.028729	-0.174467	1.410030	0.149417
2.138710	-1.105514	0.305742	-0.251133	-0.929565	-0.720108
0.666771	0.031296	-0.147831	-0.717870	1.353686	0.940722
-1.130608	2.594889	-0.749800	-0.144405	-0.809872	-0.346091
-0.062210	1.284410	2.769576	0.079261	-0.668020	1.566721
2.005076	0.664664	2.747792	1.116327	0.425327	-2.461536
-2.503561	0.815408	2.027077	1.824309	-1.700462	-0.018988
-1.089841	1.953370	2.837625	0.484752	-1.267857	1.446096
-1.384799	-1.865468	0.010409	1.071081	-0.817999	-0.539210
-0.301952	0.727109	-0.040729	1.345315	1.707767	-0.608333
-2.039247	-2.693532	1.793118	-1.131289	1.064669	-0.704941
0.047630	2.452621	-2.772045	0.490258	-0.885274	0.725447
0.957822	1.507253	-0.059818	-0.037939	0.084300	0.099376
2.792923	1.065406	-1.883027	-0.898108	-2.134671	-0.390688
1.227930	-0.252315	2.754430	-1.922916	-1.230566	-0.021054
0.369485	0.386106	0.883910	0.129402	0.280821	0.883832
-2.574958	-1.579688	-0.322500	-1.693185	0.880145	-0.717935
-2.011219	2.197271	-2.054891	-1.436760	-0.678886	0.422334
-1.995085	-2.907928	2.910688	0.011019	-0.511094	-0.945749
1.845492	0.188767	0.247913	-0.025617	-1.573379	-0.125241
2.685312	-0.684148	-2.768609	1.379920	-0.158975	1.053839
1.498845	-0.645580	-0.476220	-0.709942	-0.276352	-0.846973
1.371555	-1.816875	-1.326529	-0.496706	-1.813921	0.446374
-2.568798	-1.260433	0.724990	0.808473	0.322588	1.312374
-0.444497	-0.525489	2.423030	0.709944	0.331897	0.637385
-0.106558	-1.561054	-0.207164	0.479383	0.325652	0.621151
-0.855495	1.213674	-1.200269	0.046377	0.848776	-1.442378
-0.240426	1.938794	0.729373	1.746835	1.870202	-0.063478
0.573179	-2.873836	-0.199974	0.758765	-0.147049	1.005574
0.467535	-1.110195	-0.950136	-1.190288	0.243256	-0.675286
0.160878	2.630095	-1.627434	-1.083111	0.467747	1.538484
1.224045	2.512480	-0.990648	0.196995	0.791051	-0.318603
-0.496778	-0.190413	-0.816802	0.459005	-0.204729	-0.683871
-0.904485	2.132036	-2.016528	1.597501	-1.261827	0.709925
-1.871837	-0.054380	1.277790	-0.431461	0.455763	1.147730
-1.871269	-2.832380	-1.355435	0.393369	0.921572	-0.873587
2.731200	-0.313837	0.637456	-0.203647	1.409779	-1.459832
2.348538	2.083592	-0.530067	-1.805575	0.369953	1.571552
-1.507443	1.654753	1.079246	-0.234584	-2.445258	0.695818
2.745362	2.552163	-2.457567	0.546955	-0.617720	-0.117083
-0.632236	-2.889488	0.117011	-0.013875	-0.547795	0.371694
1.117028	1.205117	2.258389	-0.519116	-1.094282	-0.521967
100

1.876991	1.413243	1.532246	-0.676738	-0.911879	0.464376
2.145752	-1.626943	-0.881710	-1.169892	-0.577011	-0.514834
0.338680	1.694191	-1.599755	-0.404121	0.654650	1.833612
-1.055812	0.696552	-2.802057	0.385298	-0.971893	1.529190
0.114770	0.398398	2.053699	-1.373717	-0.368539	0.109127
-0.200596	2.184980	-0.504711	1.040026	-0.190498	1.688383
1.270613	-1.546112	1.610987	0.221960	-0.176369	-0.450383
1.249879	-2.073227	0.647250	1.107420	0.504444	0.401765
-0.143896	-2.455891	1.887538	-1.220700	0.582169	0.252981
1.072738	1.836785	2.832297	0.345983	-0.835071	-0.700978
0.164314	-1.570882	-1.949728	-0.731863	-0.066218	-0.976948
0.244403	-1.634722	1.275988	-0.293407	0.736950	0.271123
1.082450	2.108608	1.907633	-0.193732	0.282575	0.453781
-2.299456	2.609604	-0.048771	-0.520279	-0.793300	0.452339
0.373019	1.499039	1.455076	-0.642863	-1.169129	-0.560499
1.843078	-2.703159	-0.430575	0.051393	0.232521	-0.318093
-0.602597	-0.856277	0.391166	-0.052502	1.523117	-0.507769
2.851766	-0.778854	-1.560355	-0.914263	0.081245	-0.654822
-0.529629	0.791178	0.784373	0.974554	0.470323	-1.258586
1.944018	-2.740894	-1.453952	0.025832	0.605862	1.458858
1.799330	-1.012485	-1.604845	-0.076495	-0.450947	-0.412522
0.510428	-2.886107	1.054102	0.450549	1.263633	1.226333
-1.432537	-1.236802	0.992992	0.423946	-0.679963	0.399324
1.921566	-0.004373	-2.008957	-0.126988	-3.176952	0.070308
-0.181712	2.136940	1.984090	0.219030	-0.945669	1.123529
-2.286406	0.557227	-2.484085	-1.221459	0.178239	1.699261
0.237525	-0.684076	1.096705	-0.548646	1.627164	-0.171970
1.054144	-2.381956	2.288859	-0.914153	-1.168659	-1.028639
-2.755971	-0.463762	-0.601314	-0.032116	0.738884	-1.096406
2.203529	-0.069936	1.389029	-1.235622	-0.707010	-1.979264
1.075154	-1.482053	2.809540	-0.398245	-1.517449	-0.817481
-1.389763	-0.071852	2.437682	2.045311	0.657442	-0.065713
2.029599	2.687979	0.692786	0.970180	2.013190	1.450444
-0.982030	-1.974698	2.440911	0.261948	-0.302557	1.949664
0.468840	0.860927	-0.940155	-0.021425	1.470576	-0.016753
-0.646448	-0.883636	-2.124047	0.129879	1.038818	-1.172780
-0.088541	0.445838	-2.086289	0.260980	0.628698	-0.486360
-2.691690	1.641713	-0.932112	-1.416423	0.627564	-0.683570
-0.982836	2.720846	2.425412	-0.419863	0.258687	1.297698
-1.153062	0.939067	2.009041	2.038433	0.519952	-0.334089
-1.938629	1.237035	-0.124006	-0.753409	-1.533816	-0.180725
-2.436478	-1.018653	1.914764	-1.497343	0.343551	0.377411
0.647844	-0.023867	-1.503537	0.872055	1.278846	1.456628
2.814076	1.225155	0.030747	2.128495	0.244576	-0.863546
2.742092	-2.409885	-2.166068	0.822196	-0.436238	-0.273479
2.000091	2.094284	-1.966568	-0.452892	-0.878670	-1.618944
2.419223	-2.177691	0.307532	1.900374	-0.114906	-0.369933
2.341985	-1.095189	2.243959	2.307550	-0.292218	0.036114
-1.443165	-1.050127	2.451016	0.832934	-1.042183	-1.040918
-1.389006	0.379215	-1.837688	-0.159154	0.628797	-0.480353
-2.407413	1.939222	1.481214	-0.110060	0.366360	-0.889795
1.005912	-0.950472	-2.194438	-0.862420	1.977107	-0.028995
0.193504	-2.336751	-0.785208	1.600070	-1.126111	0.441513
-2.355788	0.848316	0.858382	-1.509660	-0.292701	-0.404739
-2.479768	-2.553539	0.607165	-1.012051	-0.120442	-0.045411
0.011043	-1.902571	2.835071	1.438064	0.428777	-1.339161
-1.134139	-2.387783	1.491175	-2.772603	-0.573949	1.246941
0.831754	0.754422	-2.590640	1.264007	-0.473568	-0.796834
-1.214770	0.309913	0.060630	0.296021	1.737032	0.585599
2.101305	-1.099398	0.103345	-0.091290	1.334655	-1.156951
0.575871	0.208388	0.021394	-0.079304	0.311036	0.607786
-1.506688	2.550699	-0.786098	-1.934691	-0.377370	0.088451
-0.101510	1.261449	-2.753793	-0.495599	0.357487	1.226300
2.178957	0.765055	2.330398	0.854774	0.378029	-2.037086
-2.466718	0.453257	2.040216	-0.536482	-1.369973	0.434589
-1.006440	1.698453	-2.867270	0.027189	0.635765	0.326065
-1.131511	-2.025910	-0.013592	1.429161	-0.627148	0.199345
-0.082167	1.102106	-0.141190	0.195458	2.501974	0.208555
-2.172720	-2.487687	1.705797	-0.301455	1.011907	-0.157346
-0.077707	2.325490	-2.698756	-0.307202	-0.216371	-0.873847
0.911013	1.540679	-0.043331	-0.500064	0.289234	-0.001699
2.697855	0.732676	-1.964462	0.474823	-0.687003	-0.264464
0.852497	-0.229212	2.812054	-2.030532	0.510747	0.429796
0.401857	0.518646	1.058299	1.271443	0.449283	0.697870
-2.662666	-1.460186	-0.243921	0.268445	-0.827269	1.552841
-2.209195	2.030701	-1.947615	-0.063956	-1.089785	1.082236
-1.989288	2.793273	2.748932	-0.134820	-0.869297	-0.653187
1.675375	-0.086155	0.147975	-1.136790	-1.244417	-0.481092
2.922607	-0.692363	-2.574879	1.017784	0.145009	0.465837
1.304564	-0.738139	-0.640064	-1.130989	-0.720974	-0.979673
1.103438	-2.025986	-1.154991	-1.494531	-0.594815	1.000301
-2.648699	-1.167221	0.871436	-0.957699	0.450704	0.051002
-0.336521	-0.433626	2.573437	0.348111	0.469652	0.978419
0.088047	-1.602898	-0.007526	1.491196	0.229541	2.008012
-0.823159	1.113983	-1.324407	0.461487	-1.788888	0.357563
0.043608	2.242757	0.613146	0.111264	-1.793373	-1.820523
0.698033	-2.907096	-0.007503	0.640751	-0.305975	0.679510
0.342144	-0.976006	-1.049360	-0.103132	0.724835	0.449175
0.089508	2.767222	-1.444709	0.928002	1.563578	0.629222
1.091863	2.495148	-1.130678	-1.235008	-0.474640	-0.443833
-0.313896	-0.175232	-0.995586	1.035967	0.644624	-1.005989
-0.563320	2.091475	-1.871430	-0.136200	-0.059975	0.391956
-1.898129	-0.185919	1.446992	0.229264	-1.321981	0.006372
-1.901514	-2.611953	-1.609628	-0.620249	1.123838	-1.728576
2.852761	-0.068228	0.618045	1.683069	0.940896	-0.621492
1.999135	2.119489	-0.348296	-1.598079	-0.630683	0.362012
-1.185991	1.562760	1.136765	1.779748	0.654697	0.068957
2.845102	2.443703	-2.499846	0.323864	-0.450135	-1.008587
-0.601905	-2.922034	0.145766	-0.141369	0.694704	-0.252779
1.086103	1.059105	2.204967	-0.221745	-1.779954	-0.550054
100

1.634763	1.396875	1.410629	-1.673348	0.081783	-0.979993
2.111486	-1.848365	-0.728876	0.859474	-0.611866	0.709459
0.239056	1.842631	-1.475645	-0.661339	-0.602928	-1.298471
-0.809730	0.663910	-2.674483	0.955461	0.225292	-0.355344
-0.052987	0.395336	2.099497	0.647050	-0.868907	0.028171
0.072979	2.441629	-0.680185	1.456468	2.590662	-0.873676
1.320766	-1.545763	1.618282	0.122516	-0.093341	-0.109343
1.438247	-2.063273	0.591690	0.195273	0.005298	-0.425626
-0.317349	-2.501538	1.902863	-0.198413	-0.927236	-0.188332
1.058355	1.728023	-2.806981	-0.853614	0.393997	0.528660
0.081976	-1.609857	-2.107430	-0.192381	-0.014381	-0.728431
0.185473	-1.667375	1.368438	-0.476429	0.241317	1.564415
0.987967	2.280572	1.688734	-0.867952	0.359737	-1.549400
-2.507308	2.216235	-0.008501	-1.383093	-2.144987	0.492545
0.261117	1.354622	1.443359	0.396412	-1.539556	1.925777
1.656269	-2.673534	-0.220441	-1.299878	-0.769244	0.551191
-0.624659	-0.553157	0.271099	-0.278631	1.402467	-0.773251
2.684712	-0.805956	-1.570938	-0.847053	-0.249753	0.050705
-0.318187	0.795416	0.858063	1.308268	-0.841593	1.542967
1.975338	-2.655548	-1.477874	0.055024	0.140718	-0.569389
1.629778	-1.391608	-1.668752	-0.946479	-2.034720	-1.266037
0.585405	-2.595696	1.111984	-0.165407	0.771545	-2.498027
-1.388565	-1.406166	1.116044	0.174441	-1.118349	0.638614
1.903085	-0.268372	-2.181721	-0.269420	-0.372918	-1.301900
-0.242393	1.967252	2.079211	-0.692466	-0.581756	-0.127919
-2.224802	0.522196	-2.460902	0.255576	-0.254160	-0.761055
0.062643	-0.307555	1.028411	-1.406884	0.946841	-0.233118
0.843216	-2.668430	2.232614	-0.730753	-0.602676	2.297714
-2.778282	-0.284333	-0.626575	-0.293184	0.681726	-0.215064
1.918863	-0.206358	1.064988	-1.259586	-0.644231	-1.502534
1.268667	-1.585920	2.657187	2.014336	0.034674	-0.316667
-1.166642	0.047679	2.218702	0.020290	0.652930	-1.892550
2.172920	-2.773544	0.933771	0.556673	1.579274	1.241265
-0.916300	-2.089339	2.899907	0.211734	0.630869	2.536297
0.524677	0.932391	-0.834245	0.495617	-0.271634	0.526482
-0.663521	-0.648900	-2.151637	-0.540119	0.825554	2.409587
-0.015021	0.359081	-2.053167	1.507151	-0.755648	-0.636225
2.864695	1.813643	-1.055950	-1.729048	1.016567	-0.276661
-0.919480	2.762921	2.553319	0.469694	-0.220526	-0.406112
-0.765887	1.120699	2.001325	0.444579	2.274565	-0.024648
-1.912660	1.064293	-0.267808	-0.501965	0.325544	-1.368359
-2.360910	-0.969012	1.961808	0.130308	-0.391999	0.671462
0.979319	0.060721	-1.308696	1.951006	0.093033	1.010190
2.842465	1.319818	-0.062044	-1.025216	0.452353	-0.152628
2.857642	-2.451155	-2.176415	-0.669995	-0.261468	-0.268003
1.866114	1.929373	-2.226771	-0.231381	-0.649663	-0.819184
2.384529	-2.031224	0.204627	-0.319645	1.264062	0.368861
2.341461	-1.183349	2.402736	-1.139934	-0.499099	1.145954
-1.357433	-1.166214	2.166797	0.855224	-0.275907	-1.521390
-1.487720	0.306850	-1.639691	-0.016090	-0.777318	1.909571
-2.401101	1.997855	1.263722	0.111630	0.380695	-1.291229
0.694485	-0.563550	-2.086914	-1.774424	1.137941	0.907701
0.116994	-2.370961	-0.323514	-0.564572	0.487448	2.049427
-2.501183	0.960649	0.943711	-0.259139	1.053839	0.804838
-2.442017	-2.515766	0.788973	0.524130	0.000119	0.271495
0.120287	-1.839824	2.614305	-0.108144	0.390970	-0.865623
-1.328091	-2.481917	1.637623	-0.841321	-0.288506	0.637748
1.066798	0.689916	-2.609996	0.982112	-0.976134	0.684904
-1.071820	0.469513	0.146687	1.892023	-0.590246	0.559817
2.254486	-1.008487	-0.121480	1.438680	0.376998	-0.837108
