64

2.748942	1.956806	4.096162	-0.110517	-2.199998	-0.207230
-0.567835	0.088662	0.754453	0.395449	-0.532037	-0.391443
-3.548955	2.395572	-1.592311	-0.605702	-0.601190	0.243605
2.158624	4.507340	-4.684868	-0.940306	0.287070	-0.188161
-0.860406	-0.650008	-4.465119	0.181079	-1.725300	-0.319904
-4.383346	3.747962	1.004885	1.022980	1.129469	0.688238
-4.565799	1.011947	-1.412194	-1.811338	-0.030299	-0.264979
-1.780719	1.920910	2.324098	0.677239	-1.258494	0.812030
0.893798	-1.550085	1.034681	0.789733	0.841436	-0.562621
0.179530	1.714348	-0.301972	-0.464572	-0.235149	-0.817160
-4.905174	2.212214	-1.072163	-0.431610	-1.658266	-0.746147
4.419198	2.719623	1.234602	-1.116720	0.515644	0.265457
3.442101	0.483508	4.275395	-0.915691	0.197888	-0.436468
-1.314428	-1.166131	1.270348	2.591276	1.727813	0.549711
0.443096	3.866223	0.738972	-0.071206	-1.084406	-0.744434
-3.586569	-0.181476	4.537374	0.459221	-1.105150	1.246680
3.223832	-3.182878	3.999109	-0.054005	1.216063	-0.017911
1.214680	-0.780554	-4.703102	-0.775026	0.559128	-1.026131
3.980178	-0.937788	-0.081325	1.476703	-0.615471	0.171440
0.744126	0.529192	0.762923	-1.165612	-0.341244	0.908983
3.074062	2.580987	-0.931898	1.420959	3.252995	0.934474
1.796576	1.602395	-2.527229	-0.563006	-1.274320	-0.871155
-2.346152	-4.590305	-0.140294	0.625083	-0.837225	0.783197
1.647034	1.918808	-0.376813	-1.359690	-0.562470	-0.097068
-4.703377	-1.936268	1.786439	0.825256	-1.183095	0.059877
-3.035758	-3.892328	1.250871	1.515840	1.226190	0.732717
-2.090182	-0.808766	0.112286	-0.290180	0.732388	-1.818621
2.574247	1.231696	3.011946	0.758539	1.439950	1.199278
-3.456919	0.851601	2.343759	1.261315	0.069484	-0.439936
2.334073	-1.109717	0.446800	-0.588134	0.641438	0.861822
2.960856	2.241138	-3.918461	1.601482	0.359131	0.868094
-3.389825	-3.105793	-2.623702	-0.124067	-0.481208	1.244556
2.023315	-2.477508	-3.007973	1.225250	0.473879	-1.462745
0.076325	4.296482	2.988145	-1.122911	-0.540949	-0.270894
0.712901	3.203669	3.750873	-1.996264	-0.930605	-0.588630
3.342726	-2.042541	1.306056	0.985975	0.592308	1.453376
-3.866847	-3.827370	2.036539	-0.462826	0.060793	0.871409
0.238774	2.264798	2.888919	-0.956708	0.585840	1.299522
-2.823153	-3.614642	0.062443	-1.921532	0.101123	-3.796029
1.287677	-2.317537	2.729250	0.230854	-1.116543	-1.030779
4.364585	1.763487	2.184103	-0.950554	1.325615	-0.327184
-2.285827	-1.407708	-1.301067	0.076222	0.057217	0.610614
1.267490	-4.052335	0.591091	2.002735	0.893397	-0.770296
4.311041	-3.530096	1.013850	0.743574	-1.099504	0.599374
1.859424	1.723725	4.695449	-0.086422	-0.084466	0.004863
-4.607236	1.383420	1.450019	0.766520	0.473916	1.332663
0.107892	-1.006268	0.667948	0.562167	0.253533	-0.693583
-4.587896	-0.666196	-0.249784	-1.783038	-0.015224	-1.104269
0.102869	2.961496	-4.675325	-1.652014	-0.239380	2.622042
2.620273	-1.794789	-1.641834	-1.657883	-1.165683	-0.295721
-4.695871	-4.005337	-3.949518	-1.301742	0.341434	-0.461486
-2.895518	1.483404	-0.986043	2.279057	-0.667203	-0.379887
-0.280176	0.011056	2.223864	1.978542	1.968557	-0.142971
-3.015738	-4.861980	1.706295	-0.083629	-1.083320	-0.183893
4.635496	2.352205	3.304854	0.365822	1.068771	-0.117271
-3.118428	0.442687	-4.636115	0.990978	0.150487	-0.196488
4.948579	-0.292977	1.418834	-0.298797	0.448493	-1.072190
-1.233557	3.870582	-1.912626	-0.717351	0.675466	-1.259975
4.800432	-2.562872	0.820652	1.236078	-1.428323	0.264028
-3.256555	-1.168410	-3.360816	-1.955285	0.163433	0.227476
-2.847822	-0.905499	-2.138115	-0.003572	-0.500621	1.427111
64

0.243254	-3.515135	2.323709	0.488345	-0.909469	-0.734714
-2.764954	-4.773732	-2.889817	-1.106755	-0.538644	0.492257
3.925511	1.545624	-1.395990	0.274261	2.362512	1.139934
2.761254	1.539578	4.170108	0.298160	-1.797499	2.002825
-0.464627	-0.039255	0.690850	0.558051	-0.624020	-0.261030
-3.675322	2.256837	-1.531009	-0.675048	-0.769445	0.353152
1.970563	4.564754	-4.722501	-0.940306	0.287070	-0.188161
-0.822591	-0.995037	-4.529332	0.198593	-1.724220	-0.322713
-4.180794	3.972141	1.144164	1.018045	1.127207	0.706919
-4.935492	0.977207	-1.474611	-1.814537	-1.228586	-0.609708
-1.645596	1.667839	2.486790	0.672875	-1.273027	0.814543
1.125004	-1.418566	0.950370	1.282488	0.662981	-0.413672
0.103197	1.665827	-0.461777	-0.278877	-0.244182	-0.780075
-4.991205	1.911192	-1.219226	-0.551713	-0.431005	-0.473254
4.201873	2.807229	1.303873	-1.065184	0.377884	0.410683
3.248396	0.540359	4.181511	-1.033766	0.395151	-0.509994
-0.777829	-0.803530	1.362350	2.792861	1.860462	0.384448
0.428991	3.649085	0.590203	-0.070061	-1.089839	-0.744267
-3.491567	-0.398408	4.791720	0.499968	-1.049854	1.305141
3.212679	-2.939537	3.995281	-0.057631	1.217245	-0.020524
1.058075	-0.668760	-4.908097	-0.792540	0.558047	-1.023322
4.277633	-1.063512	-0.038577	1.036369	-0.842989	0.478531
0.485794	0.446384	0.944716	-1.397176	-0.498895	0.941401
3.358449	3.227193	-0.745286	1.428807	3.211881	0.930965
1.685748	1.348444	-2.701545	-0.547813	-1.265910	-0.872062
-2.231161	-4.744324	0.020227	0.522506	-0.704394	0.812760
1.361074	1.804596	-0.396520	-1.528413	-0.583023	-0.099606
-4.550071	-2.185031	1.778295	0.716493	-1.310433	-0.127756
-2.747486	-3.655211	1.395839	1.353153	1.086932	0.764784
-2.143848	-0.670107	-0.259411	-0.262620	0.640856	-1.934199
2.720881	1.485101	3.133525	0.643780	0.881654	-1.023404
-3.211538	0.870268	2.250341	1.191328	0.122437	-0.491821
2.209883	-0.987613	0.624673	-0.694750	0.571129	0.923958
3.278395	2.311399	-3.746306	1.576783	0.344895	0.856045
-3.413239	-3.203782	-2.375894	-0.108789	-0.501560	1.239932
2.270202	-2.380100	-3.293826	1.239511	0.498165	-1.392753
-0.142651	4.176262	2.940143	-1.066124	-0.671343	-0.204789
0.325368	3.067049	3.661015	-1.420476	0.643762	0.517257
3.545358	-1.923657	1.590438	1.036251	0.595198	1.396817
-3.938448	-3.822314	2.192040	-0.269943	0.010596	0.690254
0.028893	2.342655	3.116996	-1.601000	-0.876288	0.142040
-3.200950	-3.608412	-0.681717	-1.848723	-0.025609	-3.685378
1.326105	-2.546855	2.519411	0.149720	-1.180199	-1.067505
4.194521	2.046164	2.114730	-0.759932	1.480425	-0.339984
-2.248536	-1.405227	-1.138387	0.383256	-0.072134	1.134719
1.667535	-3.873888	0.437579	1.998291	0.892391	-0.764996
4.455908	-3.755307	1.137543	0.727777	-1.120912	0.631025
1.826839	1.704707	4.706403	-0.228101	-0.095482	0.091348
-4.464968	1.480431	1.729891	0.675096	0.487997	1.450117
0.136683	-0.889039	0.510729	0.042865	0.665789	-0.739820
-4.948981	-0.666233	-0.469129	-1.356145	0.227269	-1.307272
-0.226172	2.913665	-4.153808	-1.642104	-0.239058	2.599751
2.287081	-2.030168	-1.706763	-1.670752	-1.187085	-0.358971
-4.955349	-3.936694	-4.041027	-1.294701	0.344536	-0.454816
-2.453218	1.361954	-1.070109	2.160386	-0.568254	-0.444361
0.114626	0.402607	2.175711	1.975840	1.943470	-0.363795
-3.040076	4.938405	1.667591	-0.150388	-0.886009	-0.222895
4.701341	2.555505	3.260959	0.290577	0.969929	-0.316922
-2.923523	0.467415	-4.678958	0.948245	0.082530	-0.238765
4.889838	-0.204887	1.199002	-0.294319	0.428787	-1.133916
-1.377733	4.006396	-2.165114	-0.725906	0.683812	-1.265471
-4.942801	-2.824347	0.891368	1.315974	-1.231781	0.440316
-3.641511	-1.132978	-3.301666	-1.899115	0.185981	0.340050
-2.874708	-0.992629	-1.893695	-0.342945	-0.307830	0.940718
64

0.352150	-3.687595	2.178345	0.609664	-0.805888	-0.717774
-2.985979	-4.878903	-2.788751	-1.100797	-0.511954	0.521557
3.921810	1.998565	-1.171731	-0.580313	2.180986	1.120780
2.758986	1.376516	4.602533	-0.124435	-0.098687	2.273409
-0.497002	0.018692	0.482649	-0.785565	0.655556	-1.583165
-3.826662	2.094153	-1.455366	-0.860526	-0.846771	0.399746
1.782502	4.622168	-4.760133	-0.940306	0.287070	-0.188161
-0.780697	-1.339301	-4.594387	0.220493	-1.717321	-0.328260
-3.966875	4.206198	1.290551	1.125552	1.216518	0.756578
4.691940	0.633061	-1.620782	-1.882668	-1.700879	-0.692454
-1.510395	1.412679	2.650100	0.692263	-1.268614	0.822010
1.264756	-1.320253	0.878209	-0.544036	-0.020369	-0.217883
0.054062	1.616473	-0.615559	-0.515606	-0.272546	-0.807748
4.986337	1.947866	-1.286213	0.587487	0.248489	-0.363576
3.988797	2.949501	1.311282	-1.082117	1.144957	-0.463525
3.129533	0.424978	4.027588	-0.263556	-1.319183	-1.020487
-0.225974	-0.545919	1.560376	2.828536	1.060593	1.230005
0.415169	3.429601	0.440628	-0.067836	-1.107131	-0.753014
-3.381787	-0.593053	-4.938419	0.604626	-0.881455	1.389689
3.200830	-2.696000	3.990786	-0.060241	1.218471	-0.025361
0.897481	-0.557479	4.887722	-0.813238	0.554473	-1.018127
4.341275	-1.316020	0.164277	0.234148	-1.283888	1.113554
0.290797	0.373719	1.170671	-0.605954	-0.353999	1.088310
3.645676	3.866556	-0.559263	1.441669	3.182322	0.930593
1.576772	1.095747	-2.875941	-0.542573	-1.261641	-0.873012
-2.130798	-4.882298	0.186314	0.484069	-0.683529	0.852482
1.047900	1.687047	-0.415417	-1.303357	-0.566425	-0.038741
-4.405380	-2.446282	1.760852	0.785415	-1.205261	0.095862
-2.487969	-3.448465	1.552878	1.254859	0.998513	0.796828
-2.194059	-0.465768	-0.597251	-0.255883	1.553475	-1.410462
2.854928	1.655310	2.938409	0.701324	0.828378	-0.894214
-2.979300	0.901754	2.149733	1.136492	0.193925	-0.505667
2.164629	-0.827711	0.793109	0.892564	1.367397	0.666506
3.592498	2.379490	-3.575728	1.566080	0.336581	0.851217
-3.427182	-3.288006	-2.175360	0.299602	0.635090	-1.677032
2.517595	-2.279613	-3.566816	1.232885	0.504221	-1.344065
-0.348979	4.025379	2.910801	-0.992209	-0.840072	-0.070918
0.068623	3.293412	3.815466	-1.324879	1.187180	0.691037
3.756514	-1.804545	1.866095	1.074570	0.595984	1.359849
-3.986459	-3.817138	2.317065	-0.232840	0.055364	0.557754
-0.328948	2.082909	3.080903	-1.819861	-1.298581	-0.194915
-3.575192	-3.633970	-1.371443	-2.228532	-1.205015	-0.777573
1.345419	-2.791833	2.302461	0.033383	-1.278803	-1.101684
4.057376	2.277325	2.139421	-0.610030	0.730817	0.720183
-2.165520	-1.502570	-0.953024	0.375182	-1.006937	0.583080
2.066834	-3.695132	0.285318	1.995072	0.895118	-0.757999
4.611323	-3.967466	1.263618	0.841974	-0.989417	0.627668
1.754180	1.692272	4.733705	-0.584698	0.001768	0.182612
-4.329854	1.576585	2.024784	0.687243	0.471561	1.491325
0.236442	-0.859169	0.369317	0.794832	-0.119882	-0.596914
4.925334	-0.528406	-0.827392	-0.534956	0.778369	-1.850433
-0.554752	2.866208	-3.633912	-1.645337	-0.233948	2.602255
1.953440	-2.268438	-1.784118	-1.664126	-1.193141	-0.407659
4.785876	-3.867713	-4.131811	-1.293718	0.344975	-0.453747
-2.025130	1.249769	-1.159754	2.129347	-0.563590	-0.447053
0.507619	0.790216	2.098543	1.974970	2.018311	-0.119962
-3.080856	4.765581	1.616109	-0.257423	-0.861421	-0.292067
4.750683	2.741271	3.178551	0.199642	0.887381	-0.506646
-2.744237	0.467508	-4.733345	0.836664	-0.096370	-0.300040
4.828764	-0.125185	0.963435	-0.320641	0.358676	-1.221685
-1.524459	4.144300	-2.419392	-0.743164	0.695145	-1.279076
-4.688861	-3.086606	0.976640	1.164872	-1.514297	0.284817
-4.017799	-1.094824	-3.230758	-1.865484	0.195239	0.361042
-2.953744	-1.047145	-1.717182	-0.358573	-0.275885	0.930351
64

0.490318	-3.834073	2.036441	0.768231	-0.662052	-0.703361
-3.203968	-4.978501	-2.681371	-1.074976	-0.486892	0.549096
3.814142	2.431194	-0.950535	-0.438702	2.138182	1.079961
2.761118	1.336745	-4.957468	-0.014921	-0.225265	2.148552
-0.625448	0.134532	0.186657	-0.497774	0.534866	-1.392662
-3.946245	1.923491	-1.378538	0.260583	-0.874061	0.340447
1.594430	4.679575	-4.797773	-0.940883	0.286695	-0.188574
-0.734805	-1.681735	-4.660664	0.237098	-1.706859	-0.334383
-3.973605	4.331910	1.369095	-0.903900	0.220456	0.132369
4.318730	0.297110	-1.749943	-1.988593	-1.461545	-0.790492
-1.371342	1.159024	2.813701	0.362705	-1.565339	0.695933
1.135078	-1.322047	0.836571	-0.492142	-0.010943	-0.095382
-0.187629	1.552137	-0.808284	-1.443991	-0.347702	-1.010141
-4.958365	1.990257	-1.355981	-0.688723	0.226865	-0.286853
3.773556	3.177091	1.221527	-1.063163	1.079608	-0.367079
3.070360	0.179564	3.831745	-0.313863	-1.168917	-0.949786
0.289349	-0.524261	1.877723	2.426062	-0.686215	1.911442
0.401934	3.205337	0.288549	-0.064101	-1.138580	-0.769116
-3.250693	-0.750667	-4.656431	0.701262	-0.698770	1.419907
3.188909	-2.451995	3.985392	-0.058780	1.222084	-0.027963
0.733239	-0.447107	4.684705	-0.827717	0.549366	-1.012068
4.393738	-1.560196	0.388898	0.278629	-1.169657	1.144355
0.212838	0.473526	1.246537	-0.225325	1.271848	-0.108349
3.934293	4.500725	-0.372449	1.443534	3.160591	0.938790
1.468332	0.843573	-3.051054	-0.541240	-1.259685	-0.879377
-2.037829	4.980715	0.362234	0.440861	-0.688604	0.913095
0.922060	1.582788	-0.388360	-0.427379	-0.503412	0.199685
-4.234144	-2.668085	1.823895	0.882158	-1.149360	0.409745
-2.242207	-3.251810	1.712735	1.206447	0.971406	0.800124
-2.250078	-0.171762	-0.892729	-0.302100	1.370516	-1.542755
3.007439	1.824372	2.758601	0.843730	0.883058	-0.925795
-2.753981	0.946731	2.051318	1.124053	0.251689	-0.471701
2.350196	-0.550277	0.925060	0.849879	1.341127	0.657591
3.905383	2.446334	-3.405683	1.562999	0.331750	0.850313
-3.319461	-3.065319	-2.730368	0.542986	1.118070	-2.818280
2.763573	-2.178899	-3.834186	1.228538	0.502113	-1.334497
-0.541125	3.845601	2.911806	-0.943887	-0.931547	0.049997
-0.204576	3.534683	3.935145	-1.387743	1.213982	0.545314
3.974159	-1.685212	2.134297	1.098958	0.597374	1.322035
-4.038574	-3.793965	2.410584	-0.301430	0.196171	0.353491
-0.695174	1.826889	3.041099	-1.512264	-0.974399	-0.096609
-4.067194	-3.974618	-1.309675	-2.458352	-1.724766	0.343720
1.336035	-3.061471	2.078958	-0.123248	-1.414495	-1.130749
3.939434	2.425519	2.304252	-0.594468	0.792077	0.864192
-2.106992	-1.680036	-0.847976	0.202086	-0.749552	0.464370
2.465525	-3.515677	0.133977	1.991246	0.899421	-0.755732
4.791731	-4.155731	1.390697	0.937960	-0.928585	0.661231
1.616934	1.697856	4.771608	-0.641561	0.008188	0.199867
-4.188950	1.669617	2.324451	0.719782	0.462402	1.502871
0.386010	-0.857486	0.275853	0.559830	0.199594	-0.469774
4.814428	-0.368301	-1.194481	-0.424255	0.606745	-1.657373
-0.885156	2.821439	-3.112129	-1.661453	-0.207970	2.616216
1.621367	-2.507200	-1.867069	-1.657136	-1.194479	-0.418091
4.527120	-3.798708	-4.222557	-1.294358	0.345546	-0.453604
-1.599078	1.132263	-1.246624	2.139152	-0.622361	-0.412170
0.902404	1.200889	2.097352	1.915581	1.998103	-0.046468
-2.898470	4.717599	1.627411	1.796808	0.202825	0.293662
4.777749	2.908023	3.057546	0.064409	0.774690	-0.699191
-2.588244	0.428927	-4.795018	0.727139	-0.284882	-0.306921
4.761494	-0.063190	0.712635	-0.350640	0.260603	-1.279319
-1.675442	4.283513	-2.677128	-0.767437	0.692005	-1.297699
-4.472785	-3.431499	1.002950	1.077891	-1.787055	0.110028
-4.388367	-1.055425	-3.158759	-1.841607	0.198881	0.359217
-3.003479	-1.104298	-1.508773	-0.122484	-0.284946	1.154698
64

0.599329	-4.007696	1.896170	0.060661	-1.316933	-0.687606
-3.415216	4.924812	-2.570314	-1.037358	-0.482234	0.559368
3.740247	2.853477	-0.739261	-0.316170	2.085810	1.037362
2.738989	1.296238	-4.535331	-0.192281	-0.181530	2.077141
-0.708954	0.242014	-0.087371	-0.356942	0.560102	-1.379907
-3.855453	1.745777	-1.311130	0.394347	-0.876104	0.332238
1.405920	4.736718	-4.835709	-0.944442	0.284676	-0.190865
-0.686479	-2.022224	-4.727988	0.245006	-1.698614	-0.338491
-4.138892	4.386489	1.399814	-0.786110	0.327562	0.168236
3.812755	0.122875	-2.011638	-2.643442	-0.738691	-1.424353
-1.462617	0.671013	2.895790	-0.650880	-2.596453	0.322708
1.097551	-1.353206	0.874127	-0.065883	-0.195616	0.332791
-0.454393	1.484050	-0.995592	-0.535156	0.090539	-0.557418
4.850369	2.042620	-1.408289	-0.953888	0.271357	-0.237780
3.563679	3.383641	1.161639	-1.035701	0.994514	-0.245105
3.006898	-0.051136	3.643330	-0.317649	-1.148049	-0.939072
0.777105	-0.650734	2.238569	2.448031	-0.612101	1.725186
0.389821	2.972681	0.132485	-0.055701	-1.194561	-0.793448
-3.103917	-0.876367	-4.373805	0.761706	-0.567604	1.401322
3.177512	-2.206736	3.979828	-0.054418	1.232863	-0.026407
0.567062	-0.337492	4.482695	-0.832666	0.547411	-1.009762
4.450576	-1.787595	0.622101	0.286766	-1.112222	1.185427
0.173322	0.715523	1.229878	-0.174075	1.176440	-0.082024
4.223416	-4.867513	-0.183515	1.454768	3.163856	0.949359
1.360652	0.592140	-3.228197	-0.534115	-1.253543	-0.893449
-1.957459	4.841546	0.557061	0.351695	-0.703809	1.059147
0.813679	1.483691	-0.353472	-0.648499	-0.483373	0.155426
-4.061262	-2.918402	1.893783	0.845591	-1.075192	0.092798
-2.004275	-3.059188	1.872635	1.174389	0.955599	0.798562
-2.311140	0.092161	-1.208239	-0.293373	1.281136	-1.594924
3.125344	1.960085	2.588800	-0.048396	0.154403	-0.685456
-2.525308	0.999912	1.963925	1.175942	0.270547	-0.391535
2.511470	-0.287721	1.056060	0.777304	1.292697	0.653962
4.217852	2.512093	-3.235100	1.562482	0.325428	0.857117
-3.211647	-2.842980	-3.292722	0.536547	1.110359	-2.809700
3.009768	-2.079155	-4.102079	1.235038	0.494116	-1.348240
-0.730765	3.658030	2.919697	-0.944802	-0.947011	0.061131
-0.481384	3.775889	4.046056	-1.387783	1.199723	0.532300
4.194869	-1.566032	2.395416	1.104843	0.593285	1.291571
-4.108594	-3.751697	2.459070	-0.404700	-0.076383	0.299769
-0.840031	1.808884	3.072133	-0.571930	0.085572	0.199256
-4.557677	-4.320409	-1.242770	-2.453073	-1.737705	0.333524
1.356268	-3.302396	1.851335	0.586765	-0.751777	-1.156623
3.884777	2.640979	2.459078	0.372245	1.644559	0.565508
-2.084462	-1.812065	-0.767185	0.021458	-0.580154	0.347388
2.863655	-3.335925	-0.017082	1.992794	0.896921	-0.754145
4.974878	-4.352587	1.538023	0.905644	-1.037904	0.819760
1.508244	1.692048	4.818292	-0.463548	-0.060779	0.269946
-4.043904	1.763139	2.625085	0.725866	0.475515	1.501594
0.431283	-0.764511	0.139904	0.073960	0.603837	-0.762059
4.839936	-0.363913	-1.420636	0.252397	-0.109256	-1.012144
-1.219648	2.784077	-2.587955	-1.681277	-0.168976	2.624334
1.290314	-2.746209	-1.950595	-1.654399	-1.195423	-0.416854
4.267769	-3.729096	-4.313181	-1.300006	0.351887	-0.452513
-1.179723	0.991424	-1.326212	1.345498	-1.221310	-0.678019
1.275521	1.590650	2.079098	1.833504	1.915306	-0.120238
-2.550235	4.756593	1.671187	1.725839	0.197249	0.126381
4.777655	3.051872	2.904181	-0.007343	0.693744	-0.792287
-2.450739	0.357572	-4.853465	0.653484	-0.419975	-0.273967
4.689369	-0.018592	0.454235	-0.368143	0.192927	-1.302035
-1.831765	4.419455	-2.936807	-0.797934	0.667054	-1.293381
-4.235087	-3.765443	1.041216	1.298061	-1.545089	0.290196
-4.755364	-1.015025	-3.086117	-1.831520	0.206954	0.371871
-3.001466	-1.158122	-1.260938	0.140972	-0.255575	1.307131
64

0.590769	-4.290373	1.759934	0.000036	-1.372684	-0.688160
-3.619729	4.828181	-2.458271	-1.010180	-0.484146	0.559913
3.681948	3.267119	-0.532674	-0.276835	2.054997	1.037697
2.690438	1.262054	-4.124035	-0.284253	-0.165815	2.041770
-0.773606	0.365756	-0.378760	-0.296681	0.685163	-1.563835
-3.790236	1.573082	-1.246087	0.281998	-0.856904	0.318519
1.216586	4.793444	-4.874131	-0.949101	0.282586	-0.193395
-0.637160	-2.361464	-4.795907	0.247508	-1.694662	-0.340283
-4.301117	4.471108	1.436107	-0.847236	0.543828	0.199139
3.297997	-0.030137	-2.290448	-2.529322	-0.779881	-1.380617
-1.595231	0.168694	2.953169	-0.680274	-2.446675	0.251944
1.074381	-1.376808	0.934126	-0.164902	-0.042696	0.253701
-0.332816	1.658814	-0.987057	0.811355	0.912178	0.191686
4.667772	2.097437	-1.453758	-0.884736	0.279681	-0.228188
3.359635	3.577057	1.119109	-1.003383	0.940762	-0.188608
2.943748	-0.282316	3.455003	-0.314801	-1.171502	-0.946780
1.267751	-0.773936	2.575754	2.457869	-0.618549	1.660285
0.379887	2.722423	-0.030055	-0.045525	-1.333518	-0.840415
-2.947941	-0.982928	-4.096443	0.794055	-0.514082	1.372807
3.167575	-1.957790	3.975914	-0.043074	1.261003	-0.007524
0.400783	-0.228001	4.280021	-0.828669	0.547864	-1.019355
4.507939	-2.008202	0.862169	0.285672	-1.098595	1.212423
0.141034	0.950019	1.208294	-0.150123	1.173760	-0.140771
4.522325	-4.232059	0.000541	1.540561	3.179412	0.861060
1.255493	0.342763	-3.408803	-0.514062	-1.238230	-0.912655
-1.886381	4.699178	0.762793	0.529608	-0.749441	0.553336
0.661917	1.393482	-0.325127	-0.890958	-0.395965	0.121479
-3.881902	-3.031741	1.807582	0.897421	-0.511643	-0.623110
-1.771391	-2.868918	2.032292	1.156620	0.947963	0.797653
-2.357773	0.347160	-1.525836	-0.140307	1.282152	-1.577060
3.094511	1.975211	2.453446	-0.137303	0.134391	-0.686011
-2.282545	1.050877	1.896349	1.246193	0.233695	-0.286559
2.664033	-0.030853	1.187191	0.753374	1.278943	0.660173
4.530623	2.576140	-3.061280	1.565420	0.313252	0.888035
-3.104411	-2.619165	-3.855211	0.537482	1.136945	-2.816816
3.257999	-1.981994	-4.375136	1.248358	0.475096	-1.388711
-0.916542	3.469746	2.951894	-0.914726	-0.927252	0.269556
-0.762335	4.010744	4.132532	-1.419932	1.135513	0.324222
4.414892	-1.448416	2.652420	1.091465	0.583006	1.280983
-4.214484	-3.899251	2.579730	-0.602461	-0.964350	0.573819
-0.960688	1.817424	3.109003	-0.622831	0.029195	0.171536
4.945763	-4.669563	-1.167551	-2.521380	-1.736797	0.451227
1.494469	-3.432582	1.618002	0.648325	-0.687105	-1.162470
3.858823	2.944692	2.513984	-0.671021	1.307661	0.061342
-2.096599	-1.914752	-0.705792	-0.128542	-0.457189	0.277823
3.264415	-3.157735	-0.167223	2.023094	0.880978	-0.745446
-4.825022	-4.562922	1.710489	1.136709	-1.046316	0.889194
1.424103	1.675822	4.878272	-0.389486	-0.098335	0.325846
-3.899790	1.860227	2.924598	0.714234	0.495705	1.492937
0.451037	-0.646232	0.002034	0.125554	0.570123	-0.614027
4.878987	-0.381667	-1.631951	0.161218	-0.086535	-1.098940
-1.556047	2.751095	-2.062537	-1.678932	-0.166340	2.630482
0.959434	-2.985294	-2.033966	-1.654399	-1.195423	-0.416854
4.006747	-3.657111	-4.403565	-1.311459	0.371821	-0.451944
-1.135669	0.569322	-1.551922	0.029329	-2.254345	-1.083611
1.642851	1.971183	2.053751	1.861347	1.894843	-0.124841
-2.210326	4.798015	1.702531	1.510467	0.247243	0.632874
4.894829	3.233242	2.791153	1.078874	1.066695	-0.398983
-2.324400	0.264859	-4.904643	0.614145	-0.500144	-0.238708
4.614923	0.016838	0.192064	-0.375628	0.165339	-1.319829
-1.994930	4.551568	-3.193319	-0.833096	0.656953	-1.271535
-3.972091	-4.060104	1.128734	1.287230	-1.428660	0.595681
4.877438	-0.971132	-3.006875	-1.843533	0.238604	0.434728
-2.952692	-1.211328	-0.992621	0.323632	-0.283572	1.362168
64

0.606040	-4.550348	1.619531	0.143732	-1.235276	-0.715879
-3.820299	4.731341	-2.346670	-0.997345	-0.483992	0.555797
3.626845	3.678118	-0.320114	-0.278553	2.062606	1.099304
2.627890	1.227475	-3.716809	-0.336572	-0.185736	2.034421
-0.826522	0.513998	-0.711676	-0.219736	0.793466	-1.735179
-3.735721	1.400948	-1.183955	0.274356	-0.867617	0.300747
1.026250	4.849775	-4.913056	-0.954365	0.280769	-0.195853
-0.587690	-2.700394	-4.863957	0.246353	-1.694548	-0.340037
-4.408072	4.451100	1.417343	-0.196900	-0.861940	-0.467367
2.795403	-0.186617	-2.567651	-2.502419	-0.779899	-1.397352
-1.732838	-0.313626	2.999996	-0.690732	-2.385860	0.224592
1.035317	-1.375074	0.975777	-0.219544	0.051822	0.165164
-0.169867	1.836479	-0.937710	0.664110	0.961748	0.161029
4.494012	2.155908	-1.504600	-0.851506	0.308621	-0.293027
3.162812	3.760127	1.082155	-0.961403	0.889626	-0.193838
2.877572	-0.525547	3.264346	-0.378216	-1.290545	-0.960610
1.764458	-0.895916	2.908411	2.548341	-0.588450	1.684202
0.367325	2.425610	-0.209802	-0.081891	-1.607489	-0.941478
-2.788136	-1.090831	-3.825785	0.799110	-0.583919	1.322637
3.160754	-1.699006	3.978795	-0.025328	1.342413	0.037991
0.235964	-0.118310	4.074626	-0.819594	0.548619	-1.033338
4.564762	-2.229498	1.105018	0.284122	-1.123640	1.207465
0.112853	1.186737	1.170451	-0.131625	1.194859	-0.247211
4.828748	-3.597930	0.163350	1.491929	3.186628	0.792256
1.156089	0.097397	-3.592573	-0.477626	-1.214773	-0.922005
-1.745365	4.533850	0.759514	0.730898	-0.832485	-0.094585
0.470183	1.326699	-0.291969	-0.872519	-0.393858	0.346105
-3.712725	-3.172342	1.684638	0.795002	-0.883631	-0.608328
-1.541157	-2.679902	2.191614	1.146491	0.942304	0.795555
-2.363935	0.603223	-1.837940	0.075125	1.265278	-1.538704
3.064226	2.023381	2.312658	-0.178598	0.345964	-0.720286
-2.029321	1.094459	1.846192	1.283369	0.208805	-0.220545
2.814099	0.224713	1.320852	0.748762	1.278173	0.677959
4.843456	2.636485	-2.876386	1.557417	0.286233	0.970934
-2.995736	-2.382086	-4.417953	0.553059	1.248117	-2.798091
3.508220	-1.889876	-4.661247	1.246914	0.445737	-1.486661
-1.098449	3.285892	3.021977	-0.907609	-0.925235	0.414890
-1.047498	4.228816	4.181531	-1.428029	1.048342	0.182945
4.629868	-1.332445	2.908790	1.055065	0.577121	1.284092
-4.326352	-4.079556	2.670091	-0.297360	-0.503532	0.809940
-1.087414	1.827938	3.140195	-0.644689	0.090609	0.136295
4.439374	4.989426	-1.065129	-2.534927	-1.689455	0.544843
1.608693	-3.583777	1.388056	0.502874	-0.816970	-1.136716
3.724643	3.193388	2.521199	-0.646975	1.184905	0.008215
-2.117177	-2.010845	-0.649478	-0.012940	-0.564315	0.295065
3.678222	-2.986091	-0.313211	2.133307	0.828087	-0.702605
-4.644775	-4.623077	1.937232	0.439731	0.216378	0.996504
1.349148	1.653678	4.946923	-0.364636	-0.121954	0.357724
-3.758025	1.961197	3.222247	0.703665	0.513397	1.483483
0.479020	-0.535182	-0.109717	0.149752	0.545389	-0.511722
4.907016	-0.404337	-1.864945	0.108769	-0.151597	-1.248473
-1.890632	2.716302	-1.535679	-1.668150	-0.183515	2.637878
0.628555	-3.224379	-2.117337	-1.654399	-1.195423	-0.416854
3.743095	-3.578738	-4.494301	-1.324061	0.415956	-0.456373
-1.143677	0.123689	-1.747296	-0.124438	-2.183105	-0.903536
2.032093	2.348106	2.032612	2.037115	1.871417	-0.085792
-1.944870	4.863402	1.943323	1.294488	0.334495	1.283867
-4.903736	3.442541	2.705874	0.921927	1.031340	-0.457517
-2.203577	0.160131	-4.949891	0.596553	-0.542878	-0.216189
4.539400	0.048611	-0.073752	-0.378417	0.154440	-1.339230
-2.164063	4.682826	-3.445947	-0.855993	0.656375	-1.256414
-3.730740	-4.341338	1.278015	1.105167	-1.387020	0.888953
4.508484	-0.915947	-2.904713	-1.834065	0.323999	0.605831
-2.892518	-1.260750	-0.722083	0.213657	-0.155380	1.335110
64

0.644612	-4.787851	1.473885	0.236196	-1.144386	-0.740054
-4.019455	4.634225	-2.236005	-0.995616	-0.488593	0.550765
3.571074	4.098682	-0.092978	-0.297485	2.128158	1.196946
2.557367	1.185020	-3.308910	-0.367729	-0.246687	2.045591
-0.861887	0.677029	-1.071202	-0.135758	0.822647	-1.859980
-3.678106	1.226043	-1.126669	0.303852	-0.878481	0.270154
0.834850	4.905787	-4.952447	-0.959801	0.279645	-0.198016
-0.538826	-3.039217	-4.931915	0.242898	-1.693906	-0.339687
-4.441562	4.295037	1.333637	-0.145974	-0.672105	-0.328222
2.294821	-0.338856	-2.851788	-2.511904	-0.731655	-1.451622
-1.870397	-0.789003	3.044893	-0.683232	-2.374458	0.225472
0.988288	-1.358892	1.001795	-0.248342	0.106126	0.098231
-0.209380	1.927507	-1.118283	-0.653310	0.055205	-1.439815
4.329361	2.221830	-1.573784	-0.786749	0.351226	-0.400195
2.977315	3.933249	1.035932	-0.883978	0.842393	-0.280963
3.087834	-0.698560	3.114486	2.716761	-0.335549	-0.554270
1.998235	-1.115998	3.216564	-0.428237	-1.709688	1.430642
0.485039	2.279857	-0.211189	0.999559	-0.197888	0.570382
-2.629190	-1.215432	-3.570312	0.791925	-0.646395	1.236926
3.155572	-1.416096	3.986892	-0.028033	1.470102	0.038772
0.072287	-0.008366	3.867327	-0.819406	0.551291	-1.038393
4.624873	-2.463738	1.336996	0.335487	-1.231000	1.077437
0.088873	1.427456	1.102749	-0.106162	1.206718	-0.449810
-4.890942	-2.947436	0.323344	1.286472	3.324543	0.826623
1.065601	-0.143660	-3.775604	-0.419430	-1.198352	-0.899607
-1.602203	4.373480	0.759310	0.706133	-0.775789	0.070332
0.315699	1.151798	-0.181824	-0.825846	-1.122564	0.599884
-3.562407	-3.380797	1.563184	0.710808	-1.188661	-0.604433
-1.312518	-2.490886	2.350839	1.139891	0.951026	0.798150
-2.336690	0.851015	-2.139650	0.172959	1.217702	-1.476602
3.138911	2.050685	2.197688	0.937865	-0.150758	-0.426473
-1.769237	1.137076	1.807143	1.319713	0.223526	-0.168166
2.964015	0.481456	1.458869	0.751768	1.294365	0.703665
-4.849327	2.689763	-2.670593	1.506252	0.245674	1.088732
-2.882813	-2.122477	-4.970631	0.573954	1.331602	-2.731212
3.751803	-1.801586	-4.975215	1.172874	0.448331	-1.664860
-1.279948	3.090838	3.111949	-0.906107	-1.053381	0.474778
-1.332920	4.432758	4.211328	-1.426015	0.997429	0.124338
4.836389	-1.217517	3.166296	1.006753	0.572764	1.292207
-4.301910	-4.042612	3.006492	0.212566	0.300752	1.784664
-1.218893	1.860176	3.161990	-0.672429	0.251917	0.077251
3.927636	4.643974	-0.948628	-2.577992	-1.759427	0.611660
1.699255	-3.756202	1.163117	0.407720	-0.903265	-1.112795
3.593826	3.417719	2.514216	-0.683021	1.056124	-0.085819
-2.105808	-2.137556	-0.589876	0.064473	-0.638389	0.299516
4.123359	-2.826709	-0.442176	2.325301	0.774318	-0.570527
-4.616085	-4.714904	1.934405	0.184900	-0.617064	-0.255013
1.277030	1.627462	-4.979689	-0.358172	-0.139669	0.374448
-3.618064	2.065132	3.518185	0.697102	0.525017	1.476579
0.509647	-0.425558	-0.205498	0.153793	0.561210	-0.449673
4.924066	-0.438264	-2.121586	0.108306	-0.152246	-1.251925
-2.223783	2.677171	-1.008026	-1.663887	-0.209436	2.636595
0.297675	-3.463463	-2.200708	-1.654399	-1.195423	-0.416854
3.478042	-3.490382	-4.586410	-1.323887	0.465975	-0.465078
-1.177454	-0.295353	-1.913373	-0.185926	-1.993002	-0.751060
2.341389	2.781503	1.987407	1.050361	2.540587	-0.371155
-1.684183	4.923739	2.182270	1.307035	0.272601	1.128790
-4.727767	3.651614	2.607005	0.858107	1.075700	-0.544558
-2.085044	0.048996	-4.992118	0.590111	-0.567894	-0.208202
4.464083	0.079251	-0.343808	-0.373719	0.152933	-1.361866
-2.336401	4.814071	-3.696466	-0.865386	0.655675	-1.250709
-3.535331	-4.610889	1.477715	0.840854	-1.303290	1.081209
4.142993	-0.845818	-2.774401	-1.865684	0.341441	0.631059
-2.863288	-1.277319	-0.456144	0.140870	-0.075322	1.325812
64

0.698255	4.990068	1.323662	0.299093	-1.078742	-0.762316
-4.218790	4.535105	-2.126468	-0.998089	-0.506060	0.544280
3.471408	4.473578	0.293781	-0.456855	1.841992	2.112023
2.481006	1.128434	-2.899722	-0.393330	-0.313537	2.043135
-0.879333	0.848844	-1.447413	-0.035522	0.922399	-1.885146
-3.614646	1.050898	-1.075489	0.328561	-0.870575	0.244029
0.642003	4.962200	-4.992232	-0.969909	0.286400	-0.199799
-0.489868	-3.378604	-4.999864	0.247546	-1.702561	-0.340076
-4.467028	4.178747	1.295263	-0.105949	-0.507701	-0.037297
1.784134	-0.477314	-3.152893	-2.603340	-0.657321	-1.565061
-2.004895	-1.267025	3.089926	-0.654629	-2.420611	0.224887
0.936808	-1.333646	1.016452	-0.265038	0.144158	0.050465
-0.333741	1.917961	-1.381003	-0.626416	-0.160993	-1.232939
4.180822	2.295826	-1.662208	-0.700569	0.386842	-0.475336
2.805043	4.093296	0.980081	-0.980685	0.672184	-0.085197
3.622627	-0.767480	2.998820	2.671625	-0.360893	-0.564569
1.942609	-1.452956	3.509357	-0.152004	-1.660571	1.501182
0.665249	2.210385	-0.102538	0.800420	-0.498950	0.558348
-2.470284	-1.344860	-3.326262	0.800002	-0.643576	1.212910
3.148430	-1.134346	4.009655	-0.037802	1.344127	0.145815
-0.092262	0.102178	3.659703	-0.827263	0.554709	-1.036961
4.702588	-2.714142	1.533318	0.450128	-1.245525	0.882206
0.071944	1.665582	0.983272	-0.057504	1.166285	-0.757642
-4.658038	-2.281462	0.492218	1.044835	3.293463	0.858377
0.994625	-0.383486	-3.945740	-0.283734	-1.201397	-0.790733
-1.461533	4.221337	0.780419	0.701622	-0.749502	0.130934
0.143787	0.948965	-0.057879	-0.853249	-0.916845	0.650032
-3.427107	-3.645762	1.444787	0.645002	-1.456211	-0.569237
-1.086498	-2.296882	2.512211	1.109300	0.999951	0.822041
-2.299561	1.092474	-2.429023	0.198300	1.199305	-1.418282
3.318237	2.036481	2.108849	0.841511	-0.005614	-0.472104
-1.501275	1.185850	1.779695	1.359897	0.268819	-0.104173
3.115587	0.746265	1.603504	0.767122	1.372567	0.749918
-4.555816	2.736001	-2.443458	1.428745	0.222641	1.173994
-2.766832	-1.853428	4.485346	0.589052	1.359192	-2.721017
3.973220	-1.705630	4.673220	1.035745	0.524495	-1.847641
-1.463179	2.893789	3.208735	-0.970680	-0.468909	0.499308
-1.617934	4.630188	4.233474	-1.423683	0.981654	0.099211
-4.970607	-1.102609	3.425767	0.907396	0.577773	1.301552
-4.260426	-3.990554	3.346000	0.205623	0.233890	1.639524
-1.354128	1.896132	3.170501	-0.634501	-0.347603	-0.004473
3.446322	4.340400	-0.960657	-2.342579	-1.430796	-0.337515
1.773762	-3.944092	0.942800	0.340428	-0.975854	-1.090435
3.442695	3.614483	2.482819	-0.808219	0.930068	-0.218587
-2.104856	-2.250341	-0.526882	-0.063170	-0.475491	0.338731
4.605862	-2.670645	-0.538104	2.488622	0.800346	-0.385245
-4.553201	-4.846208	1.882392	0.437834	-0.721579	-0.265739
1.205484	1.598100	-4.903889	-0.357766	-0.153456	0.382584
-3.478231	2.170836	3.812911	0.703892	0.531654	1.470284
0.538480	-0.304200	-0.290169	0.125532	0.674018	-0.393139
4.945260	-0.467043	-2.367939	0.031423	-0.160380	-1.242374
-2.556530	2.633078	-0.481369	-1.664704	-0.229233	2.630001
-0.033205	-3.702548	-2.284079	-1.654399	-1.195423	-0.416854
3.214093	-3.393857	-4.680337	-1.315373	0.495454	-0.473776
-1.214515	-0.679675	-2.055500	-0.187085	-1.873680	-0.690424
2.579433	3.292593	1.914592	1.318690	2.567048	-0.391470
-1.423241	4.974312	2.402521	1.300578	0.235983	1.085597
-4.555914	3.879657	2.479154	0.866912	1.228416	-0.766258
-1.967248	-0.066886	4.966096	0.587660	-0.591508	-0.211257
4.390271	0.109866	-0.618733	-0.363481	0.152516	-1.389475
-2.509589	4.945007	-3.946911	-0.864942	0.653515	-1.255877
-3.394746	-4.858793	1.699979	0.562397	-1.172610	1.119027
3.767883	-0.777561	-2.649965	-1.812432	0.367273	0.645336
-2.822870	-1.306880	-0.194554	0.269406	-0.235431	1.282696
64

0.764169	4.779569	1.169012	0.364218	-1.028327	-0.784516
-4.418744	4.429998	-2.018210	-0.999697	-0.550862	0.537930
3.450006	4.883050	0.641991	-0.021078	2.094113	1.640397
2.401829	1.062782	-2.491688	-0.394318	-0.339174	2.038662
-0.897169	1.013957	-1.828542	-0.330906	0.376935	-2.001399
-3.547890	0.878279	-1.027877	0.336553	-0.855271	0.234314
0.445679	-4.977830	4.967623	-1.001152	0.324473	-0.201954
-0.438824	-3.722373	4.931948	0.269930	-1.746809	-0.341764
-4.482419	4.077254	1.286700	-0.064484	-0.580797	-0.347827
1.393306	-0.616482	-3.307180	-1.319625	-0.728359	0.057491
-2.127112	-1.762104	3.135242	-0.349384	-2.568499	-0.093184
0.882841	-1.302093	1.023155	-0.274007	0.170618	0.018324
-0.447857	1.900715	-1.618100	-0.339999	0.349024	-1.077674
4.046354	2.375181	-1.760245	-0.651720	0.403794	-0.498640
2.530301	4.231172	0.956564	-1.644731	1.576202	-1.433011
4.158630	-0.848347	2.912567	2.707831	-0.441479	-0.286891
1.929273	-1.778378	3.814703	0.000097	-1.593267	1.543707
0.805979	2.088991	0.022494	0.642222	-0.681018	0.654719
-2.306804	-1.471605	-3.081443	0.849640	-0.618345	1.249331
3.154914	-0.879060	4.025381	0.124904	1.188694	0.028316
-0.259170	0.214082	3.452447	-0.844155	0.566640	-1.037167
4.801113	-2.957952	1.698196	0.518473	-1.203322	0.795106
0.068022	1.888597	0.799390	-0.014976	1.037429	-1.020811
-4.461933	-1.635952	0.661353	0.951158	3.177013	0.819463
0.810559	-0.612879	-4.261837	-1.545155	-1.103324	-2.405993
-1.321370	4.072616	0.809201	0.700519	-0.739120	0.153791
-0.015647	0.776601	0.078616	-0.727917	-0.812553	0.703342
-3.303725	-3.963440	1.340195	0.586096	-1.719112	-0.465356
-0.876163	-2.088502	2.682557	0.974514	1.078191	0.885718
-2.256199	1.330969	-2.707953	0.240000	1.186279	-1.370921
3.480038	2.031400	2.008520	0.804243	0.039046	-0.497993
-1.225610	1.245283	1.766393	1.394463	0.325812	-0.023597
3.272130	1.036796	1.760101	0.777861	1.426559	0.782859
-4.275910	2.782000	-2.204572	1.374976	0.245932	1.209090
-2.645448	-1.576506	3.936436	0.425081	1.454457	-2.451096
4.167736	-1.585172	4.285597	0.925017	0.707326	-2.040108
-1.671503	2.909612	3.314827	-1.057221	0.164596	0.535355
-1.902021	4.826697	4.251831	-1.416460	0.984995	0.088232
-4.809830	-0.987733	3.685918	0.664185	0.557291	1.293155
-4.219211	-3.946117	3.668830	0.206527	0.213475	1.595438
-1.468188	1.713140	3.155130	-0.556691	-1.022541	-0.128753
2.978961	4.056365	-1.012859	-2.331066	-1.414063	-0.223251
1.837258	-4.147118	0.726870	0.299910	-1.060448	-1.067646
3.445951	3.844400	2.568183	0.624322	1.292194	0.940342
-2.130452	-2.326885	-0.452037	-0.190811	-0.288187	0.415740
-4.888599	-2.504303	-0.600870	2.550939	0.859996	-0.260053
-4.445542	-4.990438	1.836753	0.610749	-0.365438	-0.297322
1.133816	1.566447	-4.827033	-0.358876	-0.162243	0.385530
-3.335585	2.277526	4.106158	0.725012	0.535140	1.461128
0.555776	-0.150658	-0.360190	0.040509	0.857795	-0.301672
4.931653	-0.502477	-2.616811	-0.147527	-0.186644	-1.236707
-2.889847	2.586375	0.044358	-1.667173	-0.237037	2.626910
-0.364085	-3.941633	-2.367449	-1.654399	-1.195423	-0.416854
2.951649	-3.293498	-4.775650	-1.310267	0.506929	-0.479446
-1.255191	-1.052449	-2.195388	-0.235019	-1.867955	-0.722971
2.689508	3.704448	1.772431	0.123646	0.951607	0.151379
-1.164590	-4.980964	2.619842	1.284002	0.212570	1.092246
-4.378528	4.141816	2.320703	0.958915	1.122140	-0.419678
-1.850171	-0.187756	4.922649	0.582524	-0.617432	-0.225511
4.318635	0.140028	-0.899830	-0.353581	0.148224	-1.422558
-2.681607	-4.924620	-4.200047	-0.852990	0.649527	-1.279893
-3.309377	4.920493	1.917832	0.286962	-1.049677	1.049467
3.423462	-0.698622	-2.517886	-1.651675	0.416344	0.666674
-2.757226	-1.372689	0.055004	0.381059	-0.424634	1.208059
64

0.848047	4.577967	1.008922	0.499127	-0.985801	-0.824493
-4.617471	4.312929	-1.911201	-0.983873	-0.623591	0.532899
3.423458	-4.711917	0.973851	-0.245698	1.964569	1.661646
2.324412	0.992907	-2.084142	-0.376390	-0.362011	2.036590
-1.003393	1.023089	-2.250067	-0.585004	0.026334	-2.134031
-3.480773	0.708416	-0.981348	0.333613	-0.844328	0.231445
0.236480	-4.900967	4.926621	-1.018360	0.346535	-0.202322
-0.377164	-4.084474	4.863598	0.273215	-1.776979	-0.349617
-4.493730	3.960560	1.183426	-0.006583	-0.477239	-0.422512
1.122263	-0.761784	-3.310797	-1.384307	-0.726327	-0.086829
-2.047162	-2.355835	2.917067	0.587082	-3.005305	-1.254401
0.827281	-1.265745	1.024585	-0.282083	0.192105	-0.002076
-0.481837	2.036926	-1.814225	-0.156128	0.708724	-0.972410
3.917411	2.456562	-1.860109	-0.641657	0.409469	-0.498157
2.203274	4.592972	0.628686	-1.599069	1.891013	-1.589853
4.709817	-0.944871	2.889884	2.792560	-0.525029	0.073080
1.935428	-2.093359	4.125346	0.053591	-1.568139	1.565666
0.985799	1.951249	0.105614	1.111482	-0.712602	0.239945
-2.132287	-1.592614	-2.827034	0.490491	-0.685646	1.042378
3.199276	-0.658370	4.027350	0.313246	1.029444	-0.006924
-0.431363	0.329824	3.244030	-0.883683	0.596744	-1.050114
4.906896	-3.199142	1.856375	0.537719	-1.215803	0.789441
0.003514	2.072265	0.636605	-0.582725	0.834282	-0.652017
-4.269679	-1.004923	0.820721	0.977872	3.138677	0.780223
0.510334	-0.832850	-4.727646	-1.464553	-1.096286	-2.259507
-1.180825	3.925110	0.841083	0.707499	-0.737764	0.163416
-0.151213	0.629395	0.222965	-0.645737	-0.657294	0.742638
-3.196930	-4.334396	1.263853	0.452981	-1.992378	-0.282554
-0.699764	-1.871280	2.864821	0.791705	1.077989	0.926272
-2.201546	1.566486	-2.976867	0.314056	1.164495	-1.314554
3.685750	2.244082	1.947130	1.150710	1.622719	-0.217348
-0.945122	1.314795	1.770275	1.407817	0.363972	0.058225
3.381760	1.121214	1.879000	0.419684	-0.118020	0.507213
-4.004524	2.836734	-1.961458	1.338843	0.304751	1.219443
-2.691099	-1.204254	3.642648	-0.321075	1.921179	-1.309014
4.349792	-1.416226	3.855549	0.838192	0.940636	-2.243344
-1.881341	2.922058	3.419839	-1.046647	-0.024319	0.518970
-2.185466	-4.975221	4.272562	-1.427412	0.998195	0.135942
-4.708036	-0.883405	3.934799	0.442239	0.523458	1.164273
-4.177775	-3.904481	3.986088	0.210226	0.202702	1.580302
-1.579006	1.524030	3.122117	-0.538946	-0.887626	-0.200377
2.513381	3.773618	-1.054981	-2.325308	-1.413364	-0.200085
1.899045	-4.376562	0.517534	0.327602	-1.245398	-1.019513
3.563561	4.100001	2.744881	0.520983	1.255909	0.795281
-2.179679	-2.366307	-0.358759	-0.299932	-0.106743	0.522133
-4.376738	-2.328983	-0.648215	2.567589	0.888985	-0.221418
-4.326592	-4.849883	1.654800	0.694777	0.928858	-1.113201
1.061927	1.533355	-4.749814	-0.360024	-0.168290	0.386362
-3.187352	2.385197	4.396530	0.760543	0.542998	1.439020
0.558847	0.028141	-0.413979	0.005451	0.908854	-0.247482
4.894332	-0.539756	-2.861262	-0.214083	-0.184016	-1.207582
-3.223492	2.539041	0.569671	-1.670553	-0.233937	2.627049
-0.694964	-4.180717	-2.450820	-1.654399	-1.195423	-0.416854
2.689124	-3.190817	-4.872639	-1.319595	0.524455	-0.494961
-1.306840	-1.428061	-2.344141	0.123193	-1.795705	-0.511563
2.731434	3.872610	1.847301	0.269264	0.891769	0.392585
-0.910028	-4.939900	2.840068	1.261939	0.200353	1.111801
-4.147279	4.174144	2.390282	1.167526	-0.123553	0.474502
-1.734436	-0.313357	4.875111	0.574527	-0.637479	-0.252249
4.248047	0.168753	-1.188196	-0.356005	0.137944	-1.463334
-2.849231	-4.795585	-4.462059	-0.816167	0.639425	-1.356629
-3.281751	4.719242	2.115147	0.045821	-0.901753	0.877347
3.099343	-0.611852	-2.384091	-1.600269	0.453817	0.673670
-2.674146	-1.475777	0.287114	0.443102	-0.603211	1.107568
64

0.972150	4.388064	0.835050	0.718136	-0.919014	-0.909717
-4.811156	4.181106	-1.804657	-0.951811	-0.691290	0.533364
3.361594	-4.325289	1.304108	-0.345998	1.908900	1.646076
2.252203	0.916617	-1.677374	-0.344930	-0.406654	2.029632
-1.121630	1.051948	-2.674473	-0.611997	0.260399	-2.116195
-3.414734	0.539829	-0.934941	0.326665	-0.843139	0.233705
0.254575	4.881133	4.913991	0.512772	-1.634197	-0.010630
-0.546040	-4.153594	4.763600	-1.276582	0.193298	-0.568517
-4.480758	3.886509	1.125490	0.134065	-0.289861	-0.180091
0.843898	-0.907256	-3.333286	-1.396293	-0.728630	-0.127173
-1.923252	-2.948831	2.668622	0.638829	-2.943571	-1.235602
0.769983	-1.225463	1.022870	-0.291159	0.210840	-0.014379
-0.523269	2.160543	-2.017873	-0.253214	0.540112	-1.063171
3.788820	2.538732	-1.959136	-0.644736	0.412103	-0.491678
1.975306	4.512331	0.365120	-0.959186	-1.535927	-1.172752
-4.669951	-1.012792	2.849152	3.451534	-0.152504	-0.473129
1.951593	-2.412703	4.445447	0.029082	-1.517917	1.539390
1.188957	1.807943	0.159738	0.908857	-0.711663	0.297428
-2.280626	-1.768637	-2.749515	-0.976630	-0.917883	0.261869
3.275291	-0.461842	4.022177	0.437685	0.943578	-0.045835
-0.616020	0.456722	3.030659	-0.977020	0.689675	-1.090058
-4.983456	-3.447269	2.013218	0.561430	-1.272473	0.773745
-0.101480	2.224737	0.502308	-0.451978	0.695593	-0.681821
-4.071169	-0.379374	0.975377	1.003226	3.118273	0.769449
0.219289	-1.051831	4.825274	-1.454687	-1.094284	-2.224227
-1.037396	3.776935	0.874038	0.729007	-0.747551	0.163969
-0.271482	0.505718	0.370132	-0.534268	-0.598826	0.702526
-3.123040	-4.755881	1.229828	0.426487	-2.189324	-0.097551
-0.550137	-1.658558	3.049916	0.725358	1.057742	0.925936
-2.127537	1.794093	-3.232654	0.435055	1.101248	-1.239348
3.908839	2.552663	1.903795	1.084741	1.481612	-0.213099
-0.662858	1.387471	1.786374	1.413151	0.351588	0.097987
3.471337	1.117516	1.980833	0.471852	0.063174	0.507969
-3.740704	2.903442	-1.717591	1.298743	0.359114	1.217769
-2.752546	-0.822508	3.381389	-0.303501	1.905677	-1.296759
4.438021	-1.262111	3.484252	0.104257	0.656385	-1.429211
-2.092992	2.906310	3.525503	-1.076977	-0.124367	0.546971
-2.478405	-4.773060	4.314351	-1.486647	1.020103	0.247737
-4.613996	-0.773848	4.148384	0.411092	0.510959	0.923859
-4.133759	-3.865165	4.302941	0.238313	0.184952	1.592782
-1.678296	1.349495	3.076696	-0.436593	-0.878498	-0.249796
2.048715	3.491672	-1.092908	-2.321954	-1.404923	-0.175966
1.864167	-4.176546	0.276957	-0.403252	2.087236	-1.279435
3.653089	4.345883	2.885447	0.375651	1.202715	0.611122
-2.248094	-2.374232	-0.244767	-0.375451	-0.000490	0.595068
-3.860094	-2.149799	-0.690345	2.608494	0.901201	-0.196600
-4.160262	-4.695859	1.444136	0.802437	0.640905	-0.962822
0.989874	1.499495	-4.672546	-0.360310	-0.169465	0.386337
-3.030151	2.495400	4.679792	0.815440	0.560880	1.386519
0.554214	0.215138	-0.455238	-0.074867	0.972820	-0.139737
4.848810	-0.575710	-3.100177	-0.238149	-0.174989	-1.181944
-3.559470	2.494633	1.095777	-1.693622	-0.200917	2.635538
-1.025844	-4.419802	-2.534191	-1.654399	-1.195423	-0.416854
2.420063	-3.078482	-4.978353	-1.294246	0.489427	-0.466688
-1.035870	-1.748394	-2.315097	1.590445	-1.563907	0.272098
2.799745	4.059762	1.934858	0.415718	0.973671	0.490685
-0.658540	-4.899771	3.065244	1.254990	0.204875	1.143510
-4.068090	4.069967	2.499925	-0.131524	-0.793383	0.576319
-1.620036	-0.442249	4.821450	0.572511	-0.650729	-0.284741
4.174595	0.194792	-1.485417	-0.383098	0.121472	-1.508854
-3.004829	-4.669110	-4.750859	-0.764512	0.634056	-1.499918
-3.145151	4.653618	2.215842	1.103935	0.079957	0.212653
2.781198	-0.515472	-2.247085	-1.582487	0.516142	0.700367
-2.583208	-1.608778	0.498421	0.452118	-0.698881	1.021922
64

1.018189	4.196960	0.709406	-0.381583	-0.996246	-0.246110
-4.998938	4.038413	-1.697764	-0.929361	-0.732047	0.535183
3.291297	-3.946922	1.634229	-0.349468	1.875026	1.657646
2.185798	0.828167	-1.273551	-0.323985	-0.482016	2.004783
-1.253305	1.126309	-3.099292	-0.713201	0.488139	-2.135916
-3.349724	0.370799	-0.887189	0.323274	-0.847969	0.244991
0.346480	4.566334	4.908272	0.425803	-1.537419	-0.045043
-0.792649	-4.128985	4.647507	-1.207258	0.072745	-0.604727
-4.441881	3.834879	1.105734	0.251159	-0.242519	-0.019227
0.564009	-1.053391	-3.359198	-1.403476	-0.733841	-0.128399
-1.794512	-3.537750	2.422261	0.644938	-2.952234	-1.228014
0.710689	-1.181337	1.019071	-0.302512	0.231261	-0.023419
-0.580645	2.258587	-2.237807	-0.317538	0.449000	-1.133904
3.659619	2.621513	-2.056766	-0.645244	0.416668	-0.484430
1.882456	4.221163	0.071060	0.146096	-1.411675	-1.875628
-3.991679	-1.041181	2.777641	3.360047	-0.116902	-0.271217
1.717480	-2.378511	4.468057	-1.510450	0.645912	-0.284625
1.357214	1.665194	0.218981	0.788378	-0.723336	0.283266
-2.463517	-1.952341	-2.692837	-0.879447	-0.919900	0.297174
3.371269	-0.278638	4.008998	0.517580	0.892515	-0.086885
-0.826717	0.612614	2.805374	-1.092626	0.857320	-1.176516
-4.867711	-3.709390	2.163181	0.597776	-1.350217	0.717898
-0.184756	2.356729	0.369677	-0.398122	0.644470	-0.635157
-3.869642	0.243100	1.129346	1.011528	3.107958	0.770938
-0.075817	-1.271124	4.376408	-1.515346	-1.102775	-2.303976
-0.888086	3.623841	0.905617	0.769344	-0.793084	0.147501
-0.360903	0.388992	0.499033	-0.358846	-0.563576	0.585761
-2.998858	4.801095	1.189331	0.618690	-2.184826	-0.351522
-0.404474	-1.444693	3.240403	0.745946	1.090309	1.021183
-2.025001	2.002399	-3.472412	0.594501	0.969117	-1.159927
4.123087	2.845740	1.862113	1.067089	1.461812	-0.204858
-0.382004	1.450345	1.809638	1.382834	0.264335	0.140653
3.568034	1.137590	2.081950	0.491577	0.125213	0.504427
-3.484306	2.978674	-1.474484	1.267095	0.388826	1.213590
-2.816766	-0.441608	3.122939	-0.363679	1.893379	-1.297844
4.481131	-1.115961	3.205781	0.304045	0.786371	-1.352664
-2.313830	2.875161	3.642413	-1.132764	-0.182183	0.633445
-2.666588	-4.584547	4.174677	-0.533002	0.895254	-1.403973
-4.544155	-0.681324	4.305875	0.309832	0.429534	0.685422
-4.074274	-3.836350	4.626870	0.386585	0.079203	1.657811
-1.747897	1.165224	3.023051	-0.289012	-0.949483	-0.282126
1.584642	3.212854	-1.123209	-2.316453	-1.378982	-0.119417
1.784870	-3.772177	0.023906	-0.392657	1.990424	-1.256731
3.714856	4.581120	2.990000	0.240637	1.149432	0.431016
-2.328604	-2.384790	-0.144038	-0.452629	-0.119878	0.354178
-3.325303	-1.970708	-0.722850	2.770884	0.876971	-0.106523
-4.041790	-4.572126	1.270891	0.559874	0.576706	-0.802424
0.917811	1.465602	-4.595278	-0.360310	-0.169465	0.386337
-2.860400	2.609857	4.948460	0.882873	0.583468	1.293126
0.526039	0.416907	-0.464697	-0.200674	1.039926	0.048793
4.799793	-0.609646	-3.334263	-0.250721	-0.164035	-1.159677
-3.902432	2.462566	1.623376	-1.739099	-0.110130	2.637735
-1.356724	-4.658887	-2.617562	-1.654399	-1.195423	-0.416854
2.400550	-3.317712	-4.786389	0.238028	-1.668080	1.357535
-0.729637	-2.060652	-2.265127	1.499776	-1.556552	0.235432
2.897624	4.260620	2.045202	0.566788	1.035103	0.619739
-0.408054	-4.856520	3.299755	1.246560	0.231870	1.210822
-4.081275	3.923049	2.593386	0.009056	-0.681572	0.363459
-1.503095	-0.573683	4.761042	0.605818	-0.666947	-0.321198
4.093473	0.217220	-1.790939	-0.428458	0.102838	-1.543749
-3.276835	-4.518271	-4.868337	-1.846499	0.868231	0.072867
-2.948683	4.658939	2.271281	0.869839	-0.050152	0.428810
2.466164	-0.403429	-2.102446	-1.568331	0.609378	0.751218
-2.501107	-1.735907	0.714241	0.362896	-0.545253	1.169936
64

0.944716	3.995575	0.654512	-0.310370	-1.023336	-0.348084
4.815450	3.889292	-1.590954	-0.930746	-0.758621	0.531509
3.222929	-3.575415	1.967266	-0.333732	1.839338	1.672611
2.118551	0.724132	-0.875821	-0.363760	-0.551547	1.976381
-1.401685	1.240009	-3.526483	-0.721188	0.571189	-2.116826
-3.285260	0.200430	-0.836956	0.322333	-0.856815	0.256481
0.428572	4.262182	4.895959	0.397663	-1.505167	-0.079528
-1.030647	-4.121714	4.517692	-1.167376	-0.000544	-0.698564
-4.383286	3.786187	1.117569	0.326795	-0.246454	0.140465
0.282125	-1.201518	-3.383374	-1.416529	-0.750282	-0.111376
-1.666599	-4.131513	2.178274	0.627278	-2.990617	-1.209431
0.648724	-1.132550	1.013318	-0.319463	0.258368	-0.032890
-0.649282	2.343013	-2.470583	-0.367997	0.399697	-1.193613
