64

-0.954445	2.903099	-4.756760	-1.344961	-1.383530	0.822111
3.135691	3.754043	-3.032744	-0.724888	-0.248069	0.809514
-5.614416	-8.336948	-0.389063	0.638449	-0.660673	-1.296259
-2.276987	-7.501568	-0.760368	1.791699	0.153559	-0.978393
0.759256	-6.072976	2.166592	-0.002957	2.204776	1.356388
3.554444	-8.676657	-1.941182	-0.451812	0.098212	-1.653761
-9.446187	-4.817104	1.478574	-1.163130	-0.861136	1.382573
-5.488820	-5.299509	-0.976103	-1.287543	-0.666133	-1.290522
0.529578	-1.464466	0.085996	0.452088	2.116960	0.106736
4.865334	-5.313129	0.888930	-0.547190	-1.316276	-0.403307
-8.019293	2.294553	0.095745	0.358657	2.088391	0.020389
-5.098627	0.204577	-0.783697	0.062806	0.278967	-0.575535
1.314478	1.222846	0.789184	0.924990	0.746293	0.977452
3.886176	0.202578	-0.843456	-1.060236	-0.228011	-0.441345
-8.471918	4.832134	-0.017189	-0.487302	0.802703	0.135118
-3.907756	4.021373	-1.050926	0.601751	-0.598034	-1.105326
0.430004	4.109824	3.484614	0.706298	-0.647518	3.187564
3.455789	3.006824	1.762635	-0.387666	-0.860488	1.507476
-6.331022	-7.980614	3.215869	0.499445	-0.017452	-1.448801
-3.341337	-9.939595	3.582002	1.066218	-0.649908	0.561018
0.250826	-8.163056	3.423232	0.306781	0.006610	-0.557514
4.836345	-7.081576	2.606362	1.444796	1.086000	-1.843533
-7.777432	-4.209962	3.401969	-0.156487	0.667283	0.218043
-2.176260	-5.913910	4.750094	1.530394	-1.627995	0.598893
-1.007884	-3.534289	3.972165	-0.826980	0.326372	-0.060434
4.482672	-3.444271	3.393812	0.232776	0.274649	-0.501073
-8.443524	1.072940	2.590487	-0.843170	1.051038	-1.621810
-4.601018	-1.667064	4.625646	-0.499130	-1.321681	0.422944
-0.140458	-1.329168	5.145946	-0.105160	-1.112514	0.968155
3.300020	1.017517	4.232431	0.756957	-0.440473	1.211207
-6.903230	5.976546	5.051410	1.584113	1.020272	0.002874
-3.770571	2.413013	2.387353	0.477207	-1.692904	-1.209130
-0.829950	4.697575	3.392968	-0.623153	1.309072	-1.311637
5.415779	3.665169	3.066302	0.643939	-0.213606	-0.539253
64

-7.849598	-8.343130	-6.019423	-0.597137	0.014007	0.928492
-2.853371	-6.813871	-10.345115	0.450223	1.050282	-1.467604
-2.996588	-9.177159	-8.532672	-2.142515	-0.803284	-0.387006
6.038273	-8.230655	-10.034342	2.495640	-0.116423	-0.910648
-8.764405	-4.283891	-7.361499	-0.875166	-0.513263	0.030230
-4.340124	-5.278958	-8.061996	0.467549	-0.800946	1.038608
-0.996731	-4.800757	-7.743700	-1.000848	0.680631	-1.530930
3.068543	-4.561772	-7.742806	-0.928759	-0.260340	1.045074
-9.096871	-0.342068	-8.029448	-0.091586	-0.085426	0.349432
-5.682252	-2.130117	-7.700311	-1.659184	-2.446746	-0.455034
-0.767112	-0.600583	-9.000913	-1.720158	-0.529254	-1.164124
2.068152	1.081478	-8.379540	0.938719	0.236357	0.537050
-8.076820	4.541277	-6.268527	-0.308659	-0.224762	0.986850
-4.522921	6.222248	-6.629762	-0.500116	1.712023	0.737620
-0.242693	2.603263	-8.428633	0.456107	-0.774129	-1.061978
3.329464	6.530376	-6.562776	0.976814	2.306808	0.893911
-7.390402	-7.306491	-1.891088	0.907033	1.230150	1.866072
-4.155662	-8.278374	-3.363169	-0.122591	-0.179894	0.442128
1.743833	-8.505305	-2.783384	1.837115	-0.551736	0.527690
4.313830	-6.974108	-6.568954	-0.366229	0.669811	-2.692121
-8.712752	-3.134883	-3.899081	-1.033404	0.980764	0.662062
-4.503238	-6.250879	-2.048504	-0.373306	-1.616816	1.547130
1.019344	-2.205495	-3.573291	0.746299	1.500390	0.315082
3.382201	-2.576552	-5.761955	-0.492450	0.653023	-1.375828
-6.735940	-1.470553	-4.682405	0.793985	-1.126362	-0.556621
-1.654765	0.356820	0.218721	1.675046	0.266768	3.052568
1.386978	1.205724	-4.192133	0.174601	0.273274	-0.223391
2.812141	0.435752	-3.777938	-0.809359	0.414141	0.153265
-8.917536	2.585468	-8.106367	0.021537	-1.884752	-2.668597
-5.026850	3.160375	-5.467737	0.353051	-0.098147	0.145812
-1.227691	2.631525	-4.594787	-1.396955	-1.313195	0.789188
2.987753	3.698154	-2.866168	-0.755740	-0.319767	0.869341
-5.472376	-8.484497	-0.648591	0.761590	-0.835783	-1.311111
-1.919269	-7.471378	-0.957366	1.716977	0.196972	-0.934672
0.752910	-5.623039	2.445279	0.049441	2.138464	1.567767
3.460797	-8.655867	-2.266308	-0.491428	0.114480	-1.601997
-9.677889	-4.997132	1.772526	-1.248775	-0.766628	1.420474
-5.740337	-5.435728	-1.235190	-1.229866	-0.697215	-1.303769
0.617089	-1.038306	0.111381	0.418995	2.143544	0.149189
4.764562	-5.574322	0.819459	-0.450308	-1.293634	-0.275398
-7.951769	2.703510	0.106334	0.321818	2.010892	0.079943
-5.054592	0.272876	-0.893958	0.130245	0.417654	-0.536027
1.435721	1.410999	0.913314	-0.410445	1.467977	-0.467164
3.641005	0.167701	-0.936261	-1.145934	-0.120809	-0.472423
-8.570774	4.992806	0.012119	-0.499092	0.802037	0.154972
-3.794128	3.898977	-1.283281	0.610234	-0.625283	-1.120391
0.574119	3.986685	4.103166	0.756168	-0.582880	3.024563
3.386748	2.829267	2.074794	-0.287811	-0.937877	1.641061
-6.223892	-7.965064	2.936479	0.567737	0.217082	-1.386794
-3.128143	-10.069599	3.693842	1.066115	-0.649305	0.556850
0.319893	-8.159642	3.304019	0.390066	0.021144	-0.642093
5.065146	-6.937916	2.199035	0.981459	0.536216	-2.110377
-7.892896	-4.125509	3.451326	-0.609544	0.323165	0.190343
-1.864964	-6.244165	4.871139	1.590585	-1.693031	0.621083
-1.172815	-3.472816	3.957981	-0.821962	0.286526	-0.082333
4.517134	-3.396990	3.294268	-0.087535	0.296117	-0.495009
-8.655091	1.299215	2.314857	-1.604536	1.327494	-0.816871
-4.702620	-1.932120	4.709304	-0.519143	-1.331052	0.413724
-0.159685	-1.553281	5.341538	-0.082426	-1.130736	0.991051
3.438362	0.943503	4.464225	0.637736	-0.323441	1.128065
-6.586096	6.193405	5.039032	1.583849	1.150347	-0.134874
-3.685848	2.080756	2.147162	0.386453	-1.642201	-1.204432
-0.945863	4.888347	3.323040	-0.541240	0.615849	0.642954
5.589371	3.682466	3.015039	0.941017	0.220730	-0.110028
64

-7.965611	-8.343884	-5.833288	-0.571819	-0.017928	0.937387
-2.762124	-6.609554	-10.656186	0.432248	1.006684	-1.649177
-3.428741	-9.325487	-8.606500	-2.180938	-0.648339	-0.337799
6.535864	-8.253155	-10.217000	2.484694	-0.106637	-0.911313
-8.927771	-4.384944	-7.350342	-0.551025	0.263260	-0.053987
-4.254918	-5.458179	-7.848266	0.388709	-1.018286	1.117130
-1.175406	-4.673021	-8.035915	-0.770849	0.589704	-1.384716
2.874821	-4.607358	-7.521553	-1.019533	-0.192874	1.170595
-9.114205	-0.353793	-7.962425	-0.082768	-0.037172	0.320377
-6.013338	-2.631245	-7.778018	-1.644976	-2.587766	-0.274277
-1.114453	-0.694216	-9.241366	-1.738641	-0.433314	-1.222612
2.284616	1.119565	-8.268074	0.950842	0.266638	0.539331
-8.151723	4.510187	-6.079119	-0.450776	-0.094353	0.901887
-4.514112	6.528895	-6.466390	0.245602	1.477968	0.858892
-0.126864	2.444634	-8.635494	0.722781	-0.829722	-1.011093
3.512690	6.831897	-6.493809	0.227611	0.425741	-0.234544
-7.205509	-7.055934	-1.531549	0.935690	1.291128	1.721034
-4.180265	-8.313931	-3.274440	-0.123548	-0.175532	0.445421
2.121798	-8.618523	-2.687097	1.983019	-0.590630	0.432285
4.246917	-6.855217	-7.125481	-0.337409	0.506207	-2.889589
-8.903075	-3.014862	-3.792657	-0.940007	0.559220	0.511214
-4.661277	-6.592710	-1.802278	-0.967345	-1.740658	1.118792
1.147315	-1.826998	-3.488249	0.596788	1.944239	0.422964
3.267230	-2.294264	-5.903430	-0.749252	2.590071	0.270346
-6.575724	-1.704409	-4.803293	0.806442	-1.228349	-0.680037
-1.313064	0.397859	0.836640	1.725116	0.170886	3.108189
1.432329	1.258753	-4.227930	0.286242	0.250239	-0.145696
2.643483	0.527774	-3.745086	-0.883905	0.527850	0.190315
-8.951382	2.249151	-8.594678	-1.157670	0.419735	-0.707542
-4.961573	3.140822	-5.454986	0.315798	-0.094358	0.012495
-1.513815	2.386475	-4.445713	-1.450882	-1.135001	0.698600
2.834351	3.623505	-2.679026	-0.771007	-0.428820	1.019769
-5.317089	-8.666922	-0.913935	0.702353	-0.700762	-1.310316
-1.590555	-7.422320	-1.136268	1.581193	0.285227	-0.865356
0.842140	-5.286773	2.882430	0.354041	0.790470	2.530607
3.351678	-8.632145	-2.585922	-0.637640	0.113917	-1.607288
-10.015737	-5.056351	1.959253	-1.845067	-0.128732	0.859838
-5.981866	-5.579611	-1.498245	-1.192064	-0.746165	-1.327053
0.697176	-0.608268	0.145220	0.384145	2.154821	0.187752
4.680636	-5.833951	0.773670	-0.391456	-1.313330	-0.184340
-7.890342	3.100539	0.125784	0.291832	1.959780	0.108150
-5.049085	0.367000	-0.999189	0.026111	0.238647	-0.548359
1.358380	1.669878	0.765525	0.553796	-0.584841	-2.604245
3.432387	0.152065	-1.031753	-0.958109	-0.041050	-0.482898
-8.670954	5.152528	0.044018	-0.501827	0.794577	0.163011
-3.582920	3.787936	-1.431571	1.283498	-0.553315	-0.551365
0.734369	3.876049	4.699767	0.845096	-0.523834	2.942907
3.280446	2.722960	2.353669	-1.167486	0.368984	0.842481
-6.040692	-7.981418	2.725363	1.665796	-0.871134	-0.424090
-2.914922	-10.199327	3.804872	1.066075	-0.648402	0.554526
0.410857	-8.158297	3.160336	0.528622	-0.014780	-0.817864
5.262512	-6.818911	1.803157	0.988142	0.677447	-1.849411
-8.018060	-4.077907	3.471087	-0.658077	0.136286	-0.004649
-1.539484	-6.599704	5.003313	1.651359	-1.864645	0.704076
-1.336477	-3.420350	3.939244	-0.813776	0.234883	-0.105394
4.409643	-3.294458	3.164760	0.096921	0.524878	-1.048641
-9.002978	1.577818	2.165826	-1.743855	1.167753	-0.522276
-4.809760	-2.200349	4.790393	-0.558149	-1.355706	0.392873
-0.171206	-1.781726	5.543694	-0.026137	-1.153096	1.033930
3.558887	0.882329	4.688911	0.572439	-0.294175	1.124963
-6.270911	6.436104	4.995593	1.566937	1.276157	-0.301089
-3.609065	1.745840	1.899844	0.391087	-1.741731	-1.284349
-1.051598	5.018721	3.434841	-0.517223	0.691150	0.473222
5.758123	3.721189	2.969308	0.752185	0.190890	-0.373995
64

-8.081122	-8.349940	-5.641080	-0.588492	-0.044633	0.998012
-2.616936	-6.430047	-10.941175	1.468110	0.698799	-0.808407
-3.870793	-9.490656	-8.690508	-2.318539	-1.314434	-0.622613
7.032552	-8.272638	-10.398610	2.483128	-0.086234	-0.906237
-8.986723	-4.170728	-7.401564	-0.201262	1.124474	-0.188834
-4.191862	-5.574588	-7.728552	0.203041	0.201329	-0.254259
-1.311233	-4.562809	-8.302933	-0.614842	0.520310	-1.292390
2.655530	-4.635643	-7.272018	-1.190771	-0.076499	1.332178
-9.130580	-0.358094	-7.901052	-0.083393	-0.006096	0.293405
-6.342899	-3.158411	-7.807500	-1.657117	-2.655336	-0.029408
-1.459317	-0.768939	-9.481450	-1.705600	-0.303450	-1.165219
2.460154	1.181934	-8.163182	0.838669	0.342014	0.517602
-8.260803	4.502337	-5.911810	-0.615875	0.010086	0.786709
-4.485334	6.830266	-6.297864	0.024281	1.539436	0.826317
-0.112640	2.265062	-8.843128	-1.090364	-1.051551	-1.100171
3.417929	6.946597	-6.483244	-0.520774	0.649493	0.072185
-7.018054	-6.785768	-1.204084	0.937618	1.422439	1.546642
-4.205236	-8.348540	-3.184697	-0.127456	-0.170769	0.453634
2.373018	-8.757950	-2.594897	-0.094925	-0.883178	0.622740
4.181519	-6.776357	-7.713037	-0.329228	0.279966	-2.959718
-9.092026	-2.880073	-3.687338	-0.958050	0.777372	0.529652
-4.840308	-6.932726	-1.573643	-0.847214	-1.674734	1.153281
1.259314	-1.458768	-3.411904	0.523196	1.755966	0.349752
3.117278	-1.792528	-5.872218	-0.838188	2.400641	-0.194346
-6.401723	-1.958157	-4.924442	1.037842	-1.324630	-0.313524
-0.968272	0.420657	1.453541	1.721065	0.048324	3.048453
1.506501	1.302551	-4.253292	0.470870	0.180565	-0.113619
2.457501	0.658292	-3.693424	-0.967500	0.802997	0.344996
-9.078446	2.507117	-8.718643	0.624299	1.529528	-0.662824
-4.898142	3.122668	-5.456985	0.320500	-0.087362	-0.028955
-1.803264	2.163972	-4.308544	-1.429483	-1.079637	0.665621
2.684849	3.529824	-2.453204	-0.702316	-0.491863	1.250669
-5.231198	-8.604027	-1.165603	0.341550	0.642245	-1.251088
-1.282572	-7.360528	-1.306574	1.504124	0.327995	-0.840911
0.880620	-5.289116	3.446644	0.221007	-0.054262	2.855997
3.366933	-8.603086	-2.935593	1.395150	0.236796	-2.052308
-10.386377	-5.072256	2.147521	-1.873599	-0.034448	0.992124
-6.223148	-5.738406	-1.765909	-1.248227	-0.862435	-1.345985
0.772386	-0.176099	0.186064	0.372357	2.170341	0.220155
4.611675	-6.105730	0.750180	-0.279805	-1.415464	-0.034656
-7.833055	3.488973	0.145372	0.288087	1.928249	0.077995
-4.998716	0.209937	-1.120310	0.304183	-1.112616	-0.620212
1.518972	1.465828	0.160118	0.795868	-1.014654	-2.984995
3.250964	0.148702	-1.129845	-0.868631	0.002094	-0.499341
-8.771085	5.310352	0.076962	-0.498193	0.783108	0.165412
-3.396989	3.684221	-1.592557	0.148204	-0.381250	-1.434136
0.909669	3.776277	5.280823	0.899694	-0.476743	2.868532
3.059980	2.798057	2.523590	-0.974604	0.344012	0.855376
-5.707108	-8.132216	2.640660	1.613450	-0.598087	-0.451974
-2.701707	-10.329008	3.915777	1.066075	-0.648402	0.554526
0.494079	-8.147487	3.070397	0.164641	0.208726	0.484992
5.452454	-6.659953	1.450355	0.882790	0.917166	-1.697861
-8.156237	-4.075048	3.445033	-0.715356	-0.117124	-0.265337
-1.209203	-6.976644	5.146348	1.637414	-1.915905	0.734916
-1.497860	-3.380276	3.915715	-0.798129	0.160040	-0.130475
4.580489	-3.204592	2.901191	0.975035	0.446498	-1.277322
-9.333257	1.716544	2.063749	-1.432336	0.415525	-1.368913
-4.929791	-2.478214	4.863449	-0.669001	-1.447930	0.322483
-0.168119	-2.014662	5.755650	0.065851	-1.182360	1.088624
3.668740	0.824593	4.915495	0.527164	-0.284289	1.144145
-5.957678	6.705843	4.921404	1.583019	1.455024	-0.435783
-3.525660	1.436140	1.656742	0.522877	-1.048710	-1.023617
-1.152300	5.164121	3.520039	-0.487979	0.765508	0.384520
5.904669	3.649843	2.979595	0.766084	-1.241980	0.813796
64

-8.202854	-8.363413	-5.426307	-0.630996	-0.096158	1.172933
-2.300806	-6.298456	-11.088176	1.540010	0.628964	-0.785778
-4.336048	-9.761684	-8.818594	-2.274552	-1.287862	-0.619891
7.529806	-8.287354	-10.580172	2.490930	-0.060555	-0.910815
-9.017437	-3.956437	-7.424827	-0.153952	1.038549	-0.115061
-4.156224	-5.549318	-7.788885	0.166593	-0.002050	-0.299971
-1.422289	-4.466850	-8.550372	-0.488179	0.426926	-1.160614
2.423219	-4.654155	-7.009613	-0.812878	-0.333121	1.092281
-9.149115	-0.355957	-7.844971	-0.109248	0.030585	0.268239
-6.662427	-3.686944	-7.784010	-1.560760	-2.624132	0.236561
-1.798884	-0.827064	-9.712258	-1.694662	-0.286100	-1.149270
2.625996	1.254450	-8.058952	0.825559	0.382652	0.527181
-8.226812	4.470370	-5.661223	0.855649	-0.309651	1.618249
-4.507499	7.143398	-6.129152	-0.236111	1.577834	0.872306
-0.308730	2.049142	-9.046558	-0.892031	-1.070871	-0.983870
3.329802	7.077965	-6.478415	-0.378727	0.649572	0.000262
-6.830998	-6.483710	-0.917491	0.917013	1.586574	1.309598
-4.232126	-8.382326	-3.092294	-0.143049	-0.166912	0.472374
2.361982	-8.941561	-2.494817	0.009305	-0.933144	0.391554
4.114068	-6.730577	-8.308583	-0.318062	0.211526	-3.004433
-9.293665	-2.707156	-3.586346	-1.002074	0.904238	0.507577
-5.008668	-7.273372	-1.342880	-0.849338	-1.773231	1.150979
1.358974	-1.116793	-3.345055	0.479064	1.676267	0.323510
2.957704	-1.327504	-5.909326	-0.742151	2.248825	-0.140240
-6.186197	-2.228120	-4.996414	0.905970	-0.865383	-0.343323
-0.620392	0.430027	2.060783	1.772058	0.057360	3.028246
1.618067	1.334942	-4.282488	0.547238	0.221614	-0.284002
2.265586	0.842776	-3.607651	-0.850607	0.945735	0.562386
-8.965967	2.793073	-8.842913	0.456828	1.310811	-0.576810
-4.832325	3.105941	-5.466608	0.340902	-0.079643	-0.070774
-2.075476	1.962025	-4.184789	-1.291302	-0.955444	0.580506
2.564337	3.436829	-2.178115	-0.487823	-0.419455	1.488856
-5.158435	-8.486709	-1.417249	0.386826	0.592425	-1.264233
-0.987762	-7.292108	-1.472913	1.444706	0.355113	-0.821711
0.773016	-5.243544	3.913702	-1.192051	0.471870	1.916823
3.627013	-8.565881	-3.349135	1.181362	0.132555	-2.066195
-10.773476	-5.067657	2.348674	-2.016267	0.097921	1.007159
-6.494298	-5.934849	-2.029401	-1.471318	-1.102855	-1.260051
0.849384	0.263863	0.231623	0.408777	2.242136	0.225404
4.562119	-6.397786	0.760822	-0.271658	-1.485395	0.112178
-7.772465	3.872406	0.154537	0.325859	1.904519	0.007627
-4.944811	0.007411	-1.245628	0.244146	-0.935889	-0.633214
1.673806	1.259759	-0.431361	0.747621	-1.066713	-2.933561
3.080336	0.152142	-1.231818	-0.847315	0.034670	-0.522784
-8.869832	5.465417	0.110099	-0.488385	0.766850	0.165954
-3.390776	3.607858	-1.893980	0.076496	-0.389129	-1.455810
1.091352	3.683558	5.849003	0.913911	-0.454926	2.818212
2.885364	2.866852	2.686982	-0.811161	0.337797	0.778230
-5.390010	-8.237982	2.545927	1.568497	-0.488151	-0.490430
-2.488492	-10.458688	4.026682	1.066075	-0.648402	0.554526
0.525685	-8.103997	3.178780	0.161629	0.208034	0.458286
5.616244	-6.461528	1.123165	0.802137	1.039211	-1.551914
-8.321713	-4.104606	3.394503	-1.196678	0.055168	0.018977
-0.894714	-7.373517	5.302805	1.505165	-2.037246	0.821631
-1.654676	-3.358985	3.886884	-0.765297	0.041227	-0.160094
4.760588	-3.113857	2.660674	0.848968	0.455104	-1.126036
-9.621484	1.815482	1.750617	-1.407190	0.574072	-1.564223
-4.866532	-2.649529	4.919835	2.255486	0.288398	0.305505
-0.139654	-2.258815	5.981340	0.157181	-1.223273	1.136093
3.770304	0.768850	5.147804	0.488911	-0.269499	1.186063
-5.846405	6.881150	4.813006	-1.227346	-0.740897	-0.812355
-3.420016	1.235753	1.454712	0.473161	-1.063785	-1.032271
-1.246738	5.325876	3.587939	-0.457597	0.855790	0.284272
6.052474	3.401475	3.138841	0.704734	-1.181019	0.739193
64

-8.325084	-8.359309	-5.283419	-0.571435	0.352352	-0.578137
-1.999528	-6.178497	-11.254017	1.489410	0.571526	-0.860146
-4.783138	-10.010900	-8.940447	-2.209863	-1.220318	-0.603558
8.029532	-8.297150	-10.762934	2.509565	-0.036608	-0.916144
-9.071347	-3.743810	-7.482802	-0.351893	1.089790	-0.438294
-4.124263	-5.566595	-7.853724	0.154436	-0.151575	-0.359059
-1.511347	-4.390984	-8.765953	-0.418722	0.342489	-1.007212
2.331840	-4.763501	-6.830370	-0.380465	-0.530501	0.823415
-9.178694	-0.343719	-7.791970	-0.200654	0.101438	0.272546
-6.981167	-4.214080	-7.720339	-1.651336	-2.665280	0.407701
-2.137809	-0.884276	-9.942100	-1.694623	-0.286059	-1.149212
2.791780	1.335018	-7.951828	0.834533	0.424203	0.544380
-8.072478	4.417758	-5.347441	0.690139	-0.220557	1.523289
-4.556137	7.448846	-6.036035	-0.263046	1.487536	-0.018619
-0.549849	1.847763	-9.320935	-1.463584	-0.984373	-1.689980
3.263861	7.203664	-6.471114	-0.280077	0.601524	0.091155
-6.658696	-6.159844	-0.675142	0.791894	1.633171	1.159078
-4.263665	-8.415049	-2.993833	-0.178900	-0.160698	0.521448
2.371218	-9.130616	-2.402020	0.094426	-0.978545	0.673226
3.861943	-6.783966	-8.598704	-1.798921	-0.517251	-0.606609
-9.272500	-2.613913	-3.372505	0.684414	0.264170	1.361241
-5.179853	-7.570810	-1.089397	-0.880405	-0.863618	1.566344
1.453294	-0.783732	-3.281121	0.469131	1.663632	0.317884
2.813669	-0.884385	-5.934827	-0.705817	2.194477	-0.120008
-6.059266	-2.200497	-5.027528	0.615087	0.283624	-0.160062
-0.254928	0.442614	2.663720	1.892817	0.055568	2.994190
1.677157	1.393342	-4.307091	0.097146	0.092247	0.925371
2.149689	0.996238	-3.446572	-0.414631	0.642815	0.893250
-8.886445	3.040531	-8.952746	0.355279	1.184656	-0.530577
-4.760381	3.090735	-5.486659	0.383595	-0.072676	-0.133838
-2.326371	1.774489	-4.071396	-1.231758	-0.928672	0.560284
2.420107	3.319611	-1.860609	-1.064802	-0.817978	1.725619
-5.078232	-8.430711	-1.696885	0.437999	-0.359559	-1.720892
-0.704480	-7.218986	-1.635079	1.387188	0.375100	-0.799083
0.556754	-5.146053	4.297086	-0.976185	0.498436	1.912708
3.853155	-8.550127	-3.771101	1.100406	0.022843	-2.162621
-11.189769	-5.030726	2.553969	-2.127392	0.271050	1.067576
-6.737985	-6.126612	-2.270427	-0.849743	-0.726883	-1.229532
0.937765	0.721146	0.271346	0.464540	2.319572	0.172778
4.707253	-6.599077	0.475740	1.332307	-0.745302	-2.253596
-7.699805	4.249653	0.147330	0.408344	1.863438	-0.082734
-4.898313	-0.172539	-1.372874	0.224222	-0.872412	-0.638684
1.819415	1.036178	-1.013525	0.737062	-1.168704	-2.908743
2.906218	0.166191	-1.340958	-0.919892	0.129011	-0.582290
-8.965967	5.616784	0.143399	-0.471994	0.746824	0.167968
-3.366051	3.530239	-2.177059	0.156285	-0.386577	-1.388585
1.274948	3.593072	6.410270	0.923009	-0.451847	2.799078
2.726130	2.931670	2.837774	-0.787466	0.310691	0.732432
-5.077339	-8.333396	2.446150	1.560830	-0.471044	-0.506517
-2.275277	-10.588368	4.137588	1.066075	-0.648402	0.554526
0.557562	-8.064151	3.261669	0.157537	0.187690	0.387878
5.764850	-6.248144	0.823981	0.665854	1.081582	-1.453155
-8.605509	-4.059715	3.474876	-1.374549	0.177641	0.607421
-0.601075	-7.784319	5.470263	1.445003	-2.062583	0.846342
-1.801455	-3.368858	3.850721	-0.693956	-0.154880	-0.204088
4.927937	-3.021805	2.446877	0.830447	0.466703	-1.024173
-9.825495	1.926189	1.519713	-0.702640	0.556792	-0.827777
-4.450879	-2.587628	5.054507	1.962497	0.323800	1.128618
-0.327541	-2.411939	6.097021	-1.510083	-0.548839	0.288609
3.864385	0.721819	5.397440	0.453453	-0.190493	1.317073
-6.017877	6.540474	4.592534	-0.775890	-1.807678	-1.194604
-3.333898	1.015507	1.246180	0.401265	-1.122101	-1.047181
-1.337630	5.507405	3.629371	-0.464456	0.963189	0.122439
6.187060	3.171857	3.283961	0.638984	-1.127566	0.729847
64

-8.442115	-8.279581	-5.435367	-0.600431	0.387436	-0.708985
-1.701027	-6.069084	-11.429218	1.501020	0.523323	-0.888570
-5.223098	-10.252996	-9.060859	-2.192825	-1.203778	-0.601464
8.535899	-8.301564	-10.944603	2.564580	-0.006585	-0.882240
-9.135207	-3.532232	-7.558710	-0.279813	1.009549	-0.282020
-4.093637	-5.603894	-7.933469	0.152836	-0.212282	-0.437354
-1.593930	-4.325659	-8.960036	-0.411000	0.316803	-0.946131
2.241538	-4.852396	-6.664050	-0.581020	-0.400924	0.962871
-9.230672	-0.312927	-7.729909	-0.311581	0.206759	0.361705
-7.318952	-4.749976	-7.629844	-1.655489	-2.661358	0.366498
-2.476895	-0.941195	-10.171750	-1.696637	-0.282194	-1.146625
2.959625	1.424282	-7.841500	0.842876	0.469554	0.557547
-7.942103	4.378400	-5.048344	0.625586	-0.178501	1.471893
-4.612367	7.742530	-6.028241	-0.287148	1.445716	0.130415
-0.831505	1.652865	-9.650556	-1.347685	-0.953943	-1.607805
3.217206	7.316811	-6.440479	-0.188541	0.527170	0.211799
-6.514885	-5.832314	-0.438876	0.641270	1.646412	1.221865
-4.309195	-8.447016	-2.876246	-0.251526	-0.157521	0.619054
2.435959	-9.346979	-2.305506	1.504944	-1.332329	-1.929177
3.509954	-6.886373	-8.728321	-1.747386	-0.510950	-0.665499
-9.151877	-2.557375	-3.108654	0.548660	0.293010	1.290945
-5.354510	-7.738586	-0.774261	-0.846421	-0.832105	1.563112
1.549101	-0.446657	-3.216646	0.496878	1.722336	0.333996
2.673902	-0.447117	-5.958091	-0.693043	2.181375	-0.112731
-5.931845	-2.159297	-5.070610	0.656964	0.155305	-0.266099
0.137762	0.449449	3.254587	2.028110	0.018497	2.903234
1.656180	1.436531	-4.165893	-0.252641	0.343804	0.357116
2.103766	1.093375	-3.214897	-0.114040	0.381780	1.351926
-8.819320	3.272116	-9.057559	0.323054	1.137433	-0.519961
-4.676757	3.076212	-5.521767	0.459959	-0.076109	-0.222791
-2.571749	1.589081	-3.959258	-1.226604	-0.926379	0.562837
2.217011	3.163535	-1.519108	-0.947719	-0.727072	1.649617
-4.982720	-8.504651	-2.050749	0.483415	-0.335656	-1.741809
-0.433000	-7.142818	-1.791906	1.326790	0.385264	-0.768377
0.372765	-5.043391	4.676054	-0.878013	0.528451	1.874550
4.079842	-8.379322	-4.073704	1.173364	1.491911	-1.067991
-11.617539	-4.964867	2.774643	-2.144352	0.357274	1.104101
-6.916172	-6.277023	-2.505702	-0.965873	-0.794179	-1.110620
1.029222	1.189073	0.305290	0.438074	2.359466	0.178606
4.978517	-6.744758	0.034193	1.395099	-0.716400	-2.198876
-7.606461	4.616270	0.121492	0.535648	1.797018	-0.174129
-4.854337	-0.343302	-1.501148	0.216540	-0.837473	-0.644134
1.927914	0.812796	-1.531234	-1.070855	-0.461223	-0.466476
2.718510	0.196042	-1.458085	-0.492523	-0.297782	-0.222731
-9.058188	5.764144	0.177423	-0.449757	0.727515	0.172353
-3.331917	3.452940	-2.452709	0.180404	-0.387453	-1.371701
1.462160	3.502439	6.971222	0.957019	-0.455681	2.819496
2.569345	2.991261	2.980814	-0.781275	0.286053	0.699323
-4.764975	-8.427283	2.343820	1.563873	-0.468283	-0.515205
-2.062062	-10.718049	4.248493	1.066075	-0.648402	0.554526
0.589327	-8.031600	3.338827	0.165606	0.127651	0.396328
5.880374	-6.036327	0.536121	0.488271	1.018026	-1.437121
-8.868369	-4.038535	3.584059	-1.270647	0.061525	0.448111
-0.312573	-8.197546	5.639530	1.446802	-2.068783	0.844433
-1.937028	-3.408590	3.807596	-0.758949	-0.056914	-0.193234
5.093763	-2.927102	2.247445	0.828616	0.480040	-0.976413
-9.969408	2.037140	1.341136	-0.752392	0.537386	-0.981998
-4.067479	-2.520953	5.266347	1.868972	0.349343	0.963933
-0.612754	-2.523971	6.163167	-1.369635	-0.564889	0.358947
3.944736	0.516768	5.533498	0.351464	-1.665107	0.245788
-6.176556	6.201591	4.347617	-0.814711	-1.608041	-1.255773
-3.256250	0.789781	1.036891	0.379057	-1.133048	-1.045429
-1.431526	5.699974	3.642119	-0.380349	0.801216	0.018540
6.306583	2.947900	3.435482	0.549056	-1.113055	0.794006
64

-8.569314	-8.205057	-5.569476	-0.691047	0.359124	-0.671526
-1.397860	-5.968831	-11.608635	1.533092	0.478825	-0.904831
-5.661079	-10.493254	-9.181140	-2.188926	-1.200513	-0.601291
9.056550	-8.300854	-11.104380	2.626299	0.011382	-0.713189
-9.186763	-3.340309	-7.597062	-0.244165	0.913467	-0.113814
-4.062778	-5.648652	-8.026756	0.156877	-0.231107	-0.491178
-1.676248	-4.262957	-9.147363	-0.412302	0.311496	-0.930418
2.103024	-4.926050	-6.439071	-0.736923	-0.348159	1.131650
-9.297607	-0.264543	-7.647066	-0.345938	0.267077	0.457348
-7.640013	-5.281479	-7.582753	-1.609079	-2.652426	0.255992
-2.816554	-0.996809	-10.400494	-1.700830	-0.272492	-1.140217
3.128370	1.522841	-7.729596	0.842670	0.515380	0.560043
-7.819370	4.344942	-4.757597	0.606274	-0.157755	1.437136
-4.674313	8.028256	-5.990045	-0.348724	1.412792	0.246601
-1.095907	1.468123	-9.981271	-1.294770	-0.891475	-1.714853
3.186955	7.415952	-6.389421	-0.117339	0.469711	0.292771
-6.405043	-5.498756	-0.185695	0.449887	1.696300	1.304774
-4.175438	-8.457513	-2.950693	1.219167	0.015562	-0.937893
2.823205	-9.684439	-2.721352	1.971322	-1.884393	-1.867256
3.159217	-6.988511	-8.861662	-1.761767	-0.510131	-0.664187
-9.045788	-2.498177	-2.852422	0.519226	0.297572	1.275088
-5.513720	-7.888452	-0.456146	-0.732962	-0.656718	1.606901
1.660200	-0.084108	-3.142393	0.649839	1.933026	0.422639
2.535694	-0.010375	-5.979840	-0.692861	2.189665	-0.105805
-5.794937	-2.132464	-5.134312	0.721628	0.121839	-0.378940
0.550915	0.455716	3.825099	2.094611	0.061683	2.811574
1.605222	1.505263	-4.102368	-0.256348	0.329004	0.319348
2.010684	1.239776	-3.048737	-0.655231	0.844383	0.596147
-8.755191	3.496753	-9.161758	0.323081	1.108543	-0.524191
-4.573415	3.058123	-5.577364	0.584004	-0.112893	-0.338175
-2.818761	1.404208	-3.845281	-1.252063	-0.920964	0.582212
2.030611	3.024300	-1.202276	-0.937726	-0.667572	1.507692
-5.070893	-8.591269	-2.197821	-0.984025	-0.498151	-0.170394
-0.173246	-7.065282	-1.942483	1.273157	0.389157	-0.735917
0.201656	-4.935211	5.046866	-0.838472	0.551617	1.834360
4.313543	-8.098130	-4.290073	1.170138	1.354363	-1.084421
-12.051949	-4.900785	2.982713	-2.202038	0.293386	0.993375
-7.125548	-6.440653	-2.721360	-1.154282	-0.839129	-1.050647
1.110653	1.665472	0.344469	0.370609	2.407260	0.216037
5.259962	-6.891081	-0.405841	1.391530	-0.758616	-2.186051
-7.482699	4.966814	0.079662	0.707934	1.704435	-0.237283
-4.811140	-0.508453	-1.630621	0.216421	-0.815547	-0.650377
1.616094	0.775845	-1.565564	-1.505084	-0.202243	-0.222305
2.686311	0.069409	-1.444255	-0.183604	-0.613581	0.018016
-9.145771	5.908134	0.212332	-0.426781	0.713827	0.176826
-3.295100	3.374482	-2.726753	0.185926	-0.399103	-1.369982
1.666867	3.409893	7.543258	1.129997	-0.473746	2.914448
2.413233	3.047158	3.118459	-0.781540	0.277464	0.678319
-4.451380	-8.520688	2.240693	1.572631	-0.464898	-0.514981
-1.848847	-10.847729	4.359398	1.066075	-0.648402	0.554526
0.628574	-8.016111	3.427225	0.247467	0.022567	0.511922
5.963418	-5.845328	0.245803	0.358846	0.895091	-1.465570
-9.115653	-4.029735	3.656753	-1.202789	0.031770	0.292581
-0.019347	-8.611541	5.807620	1.497489	-2.070262	0.835957
-2.145639	-3.330584	3.783972	-1.178662	0.581630	-0.090028
5.259352	-2.830252	2.054396	0.827750	0.487479	-0.957239
-10.120783	2.139380	1.130683	-0.744700	0.485148	-1.113207
-3.699582	-2.448721	5.450116	1.818536	0.369349	0.890192
-0.882841	-2.636925	6.236868	-1.338587	-0.564321	0.374389
4.016155	0.200794	5.586881	0.358420	-1.528575	0.275914
-6.343899	5.889730	4.091869	-0.859808	-1.524061	-1.296301
-3.181325	0.562601	0.827913	0.372671	-1.138577	-1.045381
-1.444380	5.778574	3.642059	0.105203	0.229077	0.014441
6.403655	2.727531	3.604091	0.410601	-1.084645	0.898627
64

-8.710238	-8.142869	-5.698568	-0.424167	0.179865	-0.257917
-1.087162	-5.877540	-11.790932	1.576302	0.433729	-0.917938
-6.098864	-10.733356	-9.301398	-2.188926	-1.200513	-0.601291
9.578407	-8.297941	-11.234052	2.568790	0.009999	-0.576372
-9.235227	-3.164387	-7.609548	-0.243473	0.850157	-0.020529
-4.030704	-5.695150	-8.128121	0.163964	-0.231795	-0.519428
-1.758799	-4.200786	-9.333000	-0.412923	0.310641	-0.927436
1.955181	-4.998263	-6.227980	-0.735820	-0.373997	0.998626
-9.366555	-0.208982	-7.551316	-0.342219	0.285042	0.493044
-7.964724	-5.810998	-7.510646	-1.624855	-2.669923	0.455815
-3.157610	-1.049545	-10.627644	-1.710801	-0.252831	-1.130825
3.295815	1.629456	-7.617834	0.829281	0.548037	0.557538
-7.698614	4.314633	-4.472133	0.602424	-0.148712	1.422075
-4.758490	8.305843	-5.928145	-0.505551	1.353003	0.378935
-1.345266	1.296324	-10.335761	-1.179575	-0.821296	-1.842209
3.169091	7.507444	-6.325484	-0.061630	0.450626	0.343978
-6.327902	-5.155231	0.078310	0.376381	1.717206	1.326121
-3.936009	-8.457021	-3.134453	1.197157	-0.006423	-0.918877
3.184988	-10.054766	-3.088213	1.689998	-1.819930	-1.820154
2.804074	-7.090325	-8.993675	-1.796555	-0.506993	-0.658281
-8.942828	-2.438747	-2.597842	0.511867	0.296810	1.271446
-5.648507	-8.006543	-0.137768	-0.635303	-0.549907	1.574544
1.815100	0.329985	-3.047367	0.869601	2.100665	0.509314
2.392920	0.429847	-6.000576	-0.757862	2.217044	-0.096237
-5.638877	-2.105959	-5.225832	0.847187	0.157239	-0.544226
0.976971	0.481117	4.384488	2.183000	0.213229	2.786051
1.548477	1.563182	-4.030856	-0.327616	0.231878	0.407171
1.876555	1.380977	-2.934928	-0.695248	0.683200	0.540721
-8.687957	3.713960	-9.267582	0.355274	1.051977	-0.535000
-4.440633	3.027271	-5.656663	0.742061	-0.204600	-0.445866
-3.080658	1.222865	-3.720920	-1.363746	-0.890543	0.659515
1.838717	2.895323	-0.914952	-0.980784	-0.685825	1.527705
-5.252823	-8.689113	-2.242569	-0.858205	-0.484327	-0.257816
0.077637	-6.987555	-2.085363	1.237612	0.387354	-0.688929
0.035774	-4.823557	5.410644	-0.823084	0.563443	1.805777
4.549486	-7.829111	-4.506870	1.192551	1.343978	-1.087283
-12.482304	-4.829211	3.190081	-2.072881	0.439148	1.089445
-7.376566	-6.611373	-2.921368	-1.342426	-0.864559	-0.929887
1.176634	2.153747	0.391161	0.293917	2.485941	0.245022
5.531012	-7.046924	-0.835584	1.328955	-0.785875	-2.114654
-7.330487	5.301277	0.030754	0.760503	1.666016	-0.244947
-4.767448	-0.670230	-1.760679	0.222037	-0.803129	-0.648698
1.335049	0.726567	-1.621189	-1.323464	-0.273897	-0.340809
2.635021	-0.040706	-1.459966	-0.313398	-0.505864	-0.147021
-9.229195	6.049944	0.248217	-0.408623	0.704676	0.182408
-3.258166	3.292394	-3.001039	0.181527	-0.424784	-1.373562
1.912816	3.311221	8.131668	1.306922	-0.456389	2.791280
2.255278	3.106483	3.250485	-0.806162	0.338510	0.627977
-4.135891	-8.613329	2.137930	1.582719	-0.462089	-0.512781
-1.635653	-10.977488	4.470282	1.065377	-0.650315	0.554163
0.680441	-8.018304	3.532572	-0.017342	0.023888	0.174088
6.029350	-5.675289	-0.049313	0.310467	0.816050	-1.481182
-9.350365	-4.024546	3.706466	-1.147341	0.022160	0.213538
0.292969	-9.023976	5.973758	1.648015	-2.043293	0.823755
-2.368509	-3.233198	3.762325	-1.039150	0.383049	-0.126129
5.424901	-2.732406	1.863728	0.827633	0.490568	-0.950433
-10.262646	2.232799	0.899067	-0.667052	0.454390	-1.196712
-3.337538	-2.374318	5.625710	1.806079	0.373305	0.869060
-1.149714	-2.749699	6.312171	-1.332675	-0.563335	0.377585
4.086097	-0.102788	5.643698	0.333246	-1.513288	0.302543
-6.521250	5.587257	3.830903	-0.918752	-1.509648	-1.310153
-3.106760	0.334100	0.618149	0.373060	-1.147550	-1.054191
-1.445753	5.830476	3.640016	-0.157928	0.282922	-0.042656
6.467929	2.517036	3.795549	0.231630	-1.014119	1.011187
64

-8.679167	-8.149348	-5.602026	0.313378	-0.170221	0.661380
-0.766756	-5.795817	-11.975771	1.630063	0.380583	-0.930719
-6.536698	-10.973422	-9.421757	-2.189879	-1.199742	-0.603309
10.088486	-8.295616	-11.345073	2.563698	0.010678	-0.556968
-9.284670	-2.998632	-7.608490	-0.251380	0.809870	0.026037
-3.997256	-5.741046	-8.233292	0.170164	-0.226918	-0.530292
-1.841384	-4.138658	-9.518487	-0.412923	0.310641	-0.927436
1.811564	-5.073932	-6.033662	-0.693864	-0.380677	0.948564
-9.434477	-0.151114	-7.451439	-0.337413	0.293416	0.503708
-8.291200	-6.345600	-7.417315	-1.778047	-2.450290	0.155848
-3.501734	-1.097246	-10.853350	-1.735699	-0.222039	-1.131006
3.459781	1.740667	-7.506199	0.810656	0.561658	0.559214
-7.578112	4.282789	-4.185687	0.601049	-0.181060	1.453072
-4.856399	8.581218	-5.855107	-0.325194	1.534704	0.227724
-1.571693	1.136311	-10.709415	-1.104863	-0.788633	-1.876514
3.162171	7.597724	-6.252777	-0.006718	0.454312	0.381862
-6.235558	-4.819974	0.346108	0.515982	1.650699	1.350216
-3.910075	-8.337715	-3.168409	-0.528394	1.014500	0.296212
3.522010	-10.414245	-3.459780	1.650312	-1.782228	-1.828272
2.433397	-7.190456	-9.128464	-1.955371	-0.490223	-0.714501
-8.840482	-2.379389	-2.343567	0.511725	0.296790	1.271376
-5.774181	-8.114503	0.175663	-0.627797	-0.533808	1.564694
1.996711	0.585816	-2.962566	0.920671	0.803974	0.364636
2.220596	0.877498	-6.010862	-0.986440	2.265486	0.025446
-5.477831	-2.079778	-5.334584	0.610955	-0.026624	-0.417303
1.428876	0.546434	4.936619	2.322410	0.456313	2.734182
1.471776	1.588918	-3.937133	-0.434417	0.003177	0.521895
1.722906	1.684936	-2.813128	-0.850264	2.013339	0.636202
-8.611459	3.907607	-9.377017	0.410976	0.838915	-0.567177
-4.294419	2.983119	-5.743083	0.627627	-0.180954	-0.372773
-3.143842	0.927793	-3.736245	0.329582	-1.870132	-0.533360
1.618312	2.711984	-0.505597	-1.110164	-0.977973	2.148853
-5.420131	-8.786021	-2.296271	-0.818584	-0.485167	-0.276621
0.322099	-6.910505	-2.217297	1.206878	0.383397	-0.630637
-0.128584	-4.710040	5.770295	-0.821665	0.571758	1.793113
4.792822	-7.558083	-4.728010	1.251879	1.372179	-1.136575
-12.882025	-4.727741	3.414031	-1.934623	0.568632	1.139723
-7.654019	-6.784395	-3.095809	-1.414577	-0.861404	-0.847765
1.238469	2.668783	0.436265	0.320585	2.679827	0.335005
5.795678	-7.202379	-1.255716	1.320822	-0.770621	-2.095145
-7.196899	5.642086	-0.020333	0.607534	1.727720	-0.265012
-4.721308	-0.830204	-1.889125	0.245681	-0.798471	-0.630010
1.082470	0.672691	-1.703978	-1.220436	-0.242839	-0.477300
2.564143	-0.136045	-1.496920	-0.388226	-0.451572	-0.215510
-9.309579	6.190264	0.285331	-0.396077	0.699053	0.188930
-3.223238	3.203281	-3.275732	0.165158	-0.470476	-1.371532
2.196986	3.262493	8.583333	1.453338	-0.181665	2.065807
2.092913	3.175751	3.378152	-0.679466	0.122916	0.961701
-3.818545	-8.705761	2.035460	1.590020	-0.462728	-0.512268
-1.423050	-11.108176	4.581226	1.060374	-0.656435	0.555677
0.567732	-7.992704	3.426202	-0.662809	0.148572	-0.676468
6.089775	-5.515945	-0.345797	0.297074	0.782785	-1.482087
-9.576357	-4.020337	3.744990	-1.116634	0.020413	0.175662
0.647308	-9.422273	6.135382	1.912486	-1.917450	0.782048
-2.563578	-3.174646	3.734556	-0.917073	0.204700	-0.150072
5.590418	-2.634243	1.673746	0.827581	0.490836	-0.949866
-10.387822	2.323251	0.654963	-0.588673	0.453700	-1.239124
-2.974920	-2.299819	5.798612	1.826491	0.369502	0.862856
-1.417328	-2.862283	6.387190	-1.347942	-0.561473	0.370358
4.144492	-0.406242	5.715148	0.306191	-1.524498	0.337438
-6.713009	5.283862	3.569350	-1.002152	-1.526068	-1.301393
-3.032258	0.103319	0.405488	0.371128	-1.160498	-1.074285
-1.503887	5.891766	3.628498	-0.405846	0.334522	-0.064657
6.512036	2.313970	3.998659	0.291143	-1.076681	0.986516
64

-8.628178	-8.190089	-5.469661	-0.267740	0.168163	1.043153
-0.434262	-5.726214	-12.163650	1.698617	0.311987	-0.950315
-6.974858	-11.213157	-9.542908	-2.191703	-1.197373	-0.608555
10.613805	-8.301637	-11.463056	2.690859	-0.069318	-0.629493
-9.335758	-2.839437	-7.600861	-0.259369	0.783676	0.047422
-3.962864	-5.785964	-8.339731	0.173280	-0.222484	-0.533539
-1.923968	-4.076530	-9.703974	-0.412983	0.310601	-0.927465
1.678415	-5.150921	-5.848440	-0.638764	-0.392437	0.902446
-9.501660	-0.091551	-7.350185	-0.334562	0.302767	0.508807
-8.687961	-6.796233	-7.468008	-1.999549	-2.237130	-0.287434
-3.856485	-1.137611	-11.085422	-1.831530	-0.179272	-1.215945
3.620441	1.853445	-7.394252	0.797277	0.565236	0.559748
-7.460256	4.237323	-3.888271	0.569485	-0.284171	1.521127
-4.899464	8.916770	-5.827827	-0.226719	1.673387	0.155266
-1.791705	0.978813	-11.083894	-1.099394	-0.788448	-1.866978
3.166534	7.689630	-6.173176	0.051887	0.465478	0.414089
-6.143868	-4.484181	0.610065	0.376116	1.719990	1.268119
-4.005592	-8.139842	-3.115641	-0.442364	0.995694	0.251692
3.629999	-10.777798	-3.538706	0.076396	-1.832318	0.202341
2.074488	-7.296866	-9.278869	-1.223249	-0.732359	-0.780441
-8.738136	-2.320030	-2.089291	0.511823	0.296958	1.271420
-5.900644	-8.220751	0.489297	-0.637343	-0.529198	1.572836
2.158908	0.769603	-2.892265	0.686466	1.013680	0.314512
2.017037	1.325483	-5.996058	-0.544943	1.833130	-0.261909
-5.384849	-2.112201	-5.399820	0.431536	-0.140191	-0.328792
1.886434	0.665386	5.489361	2.195076	0.718727	2.843764
1.385736	1.558831	-3.820980	-0.384291	-0.304841	0.642799
1.553887	2.071338	-2.704167	-0.834557	1.887082	0.432139
-8.508019	4.112699	-9.499012	0.839438	1.963588	-0.773552
-4.196081	2.955057	-5.800674	0.424338	-0.168997	-0.210431
-3.088427	0.565632	-3.834937	0.248124	-1.774373	-0.471138
1.503772	2.499008	-0.325414	-0.360161	-1.041031	0.596495
-5.580660	-8.882836	-2.353057	-0.790013	-0.483138	-0.290198
0.561657	-6.834572	-2.339450	1.199790	0.369457	-0.599601
-0.293279	-4.595116	6.128839	-0.826196	0.576262	1.795009
5.056809	-7.278539	-4.968124	1.399443	1.420678	-1.274026
-13.260029	-4.603622	3.643294	-1.849800	0.672757	1.149126
-7.942037	-6.959225	-3.267180	-1.478635	-0.910781	-0.852453
1.148428	3.201077	0.752272	-1.516523	1.935425	1.998477
6.059914	-7.356407	-1.676555	1.321622	-0.775381	-2.124307
-7.064988	5.981734	-0.066986	0.737207	1.655895	-0.180467
-4.664070	-0.990863	-2.007320	0.347183	-0.812098	-0.526433
0.839681	0.641094	-1.804862	-1.204228	-0.068796	-0.519988
2.481622	-0.221957	-1.545143	-0.431393	-0.409133	-0.264958
-9.387857	6.329731	0.323804	-0.387273	0.695921	0.195978
-3.193904	3.102378	-3.548492	0.121350	-0.543337	-1.351926
2.472651	3.214547	9.010395	1.296955	-0.296121	2.203457
1.994753	3.157970	3.653407	-0.498126	-0.132207	1.414797
-3.500155	-8.798544	1.932910	1.593416	-0.465283	-0.513420
-1.211521	-11.239871	4.692815	1.054354	-0.660872	0.560826
0.451501	-7.964374	3.305866	-0.507862	0.143286	-0.549526
6.148956	-5.360952	-0.642037	0.295331	0.769336	-1.479999
-9.798849	-4.016242	3.777967	-1.112720	0.020813	0.155783
1.060849	-9.782244	6.282267	2.225442	-1.656968	0.685979
-2.737722	-3.150765	3.702942	-0.827077	0.031232	-0.164445
5.755935	-2.536075	1.483773	0.827581	0.490836	-0.949866
-10.500336	2.414847	0.405151	-0.540343	0.462145	-1.255691
-2.601246	-2.229780	5.973478	1.933795	0.310668	0.898716
-1.694229	-2.971155	6.457741	-1.443817	-0.506863	0.322150
4.428414	-0.705416	5.494517	1.895131	-1.498434	-1.724565
-6.921589	4.976807	3.311921	-1.080154	-1.543876	-1.269990
-2.958644	-0.129776	0.188127	0.364396	-1.169012	-1.099503
-1.600975	5.965334	3.616074	-0.554818	0.403729	-0.057284
6.584502	2.084805	4.192074	0.354485	-1.142342	0.966160
64

-8.809486	-8.067432	-5.146211	-0.963681	0.673110	1.689231
-0.086328	-5.671803	-12.357027	1.783467	0.229989	-0.987759
-7.413325	-11.452352	-9.665264	-2.192595	-1.195555	-0.615393
11.161425	-8.302862	-11.596845	2.768163	0.025796	-0.743563
-9.388290	-2.684529	-7.590462	-0.265706	0.766372	0.054963
-3.928123	-5.830252	-8.446688	0.173816	-0.221103	-0.535669
-2.006895	-4.014630	-9.889639	-0.416480	0.308268	-0.929349
1.554555	-5.232242	-5.672277	-0.603273	-0.424199	0.860969
-9.568438	-0.029934	-7.248036	-0.333830	0.313362	0.512152
-9.086868	-7.251362	-7.513556	-2.014742	-2.317240	-0.184148
-4.186539	-1.176102	-11.268901	-1.077859	-0.244634	0.075034
3.778959	1.966438	-7.282759	0.787956	0.563712	0.552796
-7.352228	4.169447	-3.580301	0.509293	-0.387822	1.550680
-4.957201	9.234608	-5.782369	-0.246151	1.567148	-0.020658
-2.012314	0.820372	-11.456199	-1.107229	-0.796163	-1.856337
3.183256	7.783774	-6.087374	0.117552	0.476150	0.444067
-6.085055	-4.131742	0.849571	0.218360	1.801826	1.122124
-4.086742	-7.929286	-3.057846	-0.358382	1.117730	0.331936
3.655077	-11.142209	-3.509257	0.153410	-1.814109	0.117625
1.852395	-7.422343	-9.396045	-0.751362	-0.313913	0.178846
-8.635518	-2.260185	-1.834913	0.514737	0.302256	1.272378
-6.029143	-8.326091	0.805144	-0.648191	-0.523005	1.586726
2.269888	0.979092	-2.851662	0.426044	1.063308	0.093095
2.033805	1.608050	-6.160063	0.137893	1.400956	-0.877151
-5.297275	-2.112169	-5.469432	0.436793	0.161595	-0.342060
2.297985	0.819054	6.087060	1.908697	0.782527	3.110193
1.332607	1.480702	-3.675228	-0.121337	-0.435440	0.810957
1.365714	2.419008	-2.606566	-1.040366	1.222132	0.792536
-8.327157	4.525339	-9.662091	0.879884	1.995264	-0.789170
-4.021364	2.912244	-5.925153	1.524898	-0.288774	-1.246062
-3.040151	0.212951	-3.928417	0.237642	-1.756275	-0.466428
1.413037	2.291086	-0.250657	-0.840659	-1.240309	-0.438622
-5.737568	-8.979428	-2.412016	-0.783315	-0.483503	-0.298935
0.808400	-6.766063	-2.462793	1.138656	0.507229	-0.612695
-0.459202	-4.480564	6.489899	-0.831564	0.564232	1.820132
5.264618	-7.003937	-5.138660	0.478440	1.342596	-0.207360
-13.622875	-4.458667	3.872529	-1.777558	0.778256	1.140402
-8.231971	-7.126243	-3.456032	-1.305066	-0.604920	-1.258004
0.836331	3.549765	1.152997	-1.464197	1.699316	1.960404
6.322349	-7.516996	-2.115058	1.296748	-0.834199	-2.273813
-6.901832	6.304168	-0.088773	0.888783	1.571751	-0.032542
-4.630303	-1.148838	-2.171171	-0.401268	-0.730321	-1.807433
0.606693	0.628933	-1.914387	-1.112283	-0.002468	-0.554223
2.392812	-0.300159	-1.602537	-0.455406	-0.374483	-0.307208
-9.464662	6.468628	0.363756	-0.381593	0.692885	0.203827
-3.177176	2.984968	-3.814988	0.039721	-0.632041	-1.306872
2.716671	3.146251	9.462659	1.146044	-0.383078	2.317397
1.884604	3.125666	3.927919	-0.588645	-0.203326	1.354354
-3.181328	-8.891930	1.829911	1.594638	-0.468719	-0.517178
-1.001536	-11.372661	4.805855	1.044621	-0.667515	0.570767
0.364860	-7.928421	3.195912	-0.354684	0.230346	-0.572532
6.208321	-5.207465	-0.937680	0.298618	0.767261	-1.476727
-10.023123	-4.011839	3.807548	-1.134466	0.023620	0.140434
1.531337	-10.080369	6.415490	2.466135	-1.317158	0.661204
-2.895500	-3.162621	3.669590	-0.750542	-0.153501	-0.166152
5.921451	-2.437908	1.293800	0.827581	0.490836	-0.949866
-10.604845	2.508192	0.153904	-0.506637	0.471146	-1.254576
-2.217507	-2.151857	6.146013	1.775189	0.760713	0.693191
-1.978292	-3.088609	6.528260	-1.266917	-0.959371	0.516084
4.802141	-1.018151	5.148254	1.764207	-1.710417	-1.469358
-7.142845	4.666719	3.061479	-1.127652	-1.556544	-1.235062
-2.886472	-0.363574	-0.033942	0.357446	-1.167654	-1.120512
-1.722742	6.053687	3.605994	-0.660925	0.481899	-0.042847
6.638926	1.874686	4.385728	0.189130	-0.945828	0.961760
64

-8.989742	-7.932449	-4.808805	-0.840366	0.693422	1.723542
0.276258	-5.631182	-12.559261	1.622610	0.450001	-1.025858
-7.851762	-11.692033	-9.789540	-2.191989	-1.203721	-0.630231
11.712201	-8.302288	-11.754353	2.760007	-0.101477	-0.671942
-9.441917	-2.532506	-7.579390	-0.270361	0.754404	0.054804
-3.893360	-5.874473	-8.553822	0.173816	-0.221103	-0.535669
-2.090624	-3.953266	-10.075780	-0.421042	0.305213	-0.932303
1.435831	-5.321698	-5.503249	-0.585703	-0.473237	0.830715
-9.635250	0.033949	-7.145384	-0.334409	0.327293	0.514446
-9.380954	-7.588644	-7.730792	-1.006500	-1.156412	-1.902699
-4.384210	-1.225238	-11.219402	-0.996696	-0.245002	0.188016
3.935499	2.078438	-7.174210	0.776469	0.555054	0.529343
-7.255415	4.086007	-3.269886	0.462543	-0.438528	1.552480
-4.978855	9.596325	-5.933114	-0.087096	1.801366	-0.856669
-2.234723	0.660725	-11.826600	-1.117236	-0.799212	-1.848656
3.213857	7.879958	-5.995909	0.190536	0.485081	0.469829
-6.052978	-3.765064	1.058791	0.108590	1.862239	0.968392
-4.250731	-7.748701	-3.135083	-1.196239	0.764092	-0.920058
3.687984	-11.504162	-3.487104	0.176351	-1.805154	0.107904
1.730533	-7.458393	-9.313158	-0.596254	-0.163120	0.363607
-8.531879	-2.198600	-1.579973	0.523374	0.315926	1.279588
-6.159858	-8.429391	1.124660	-0.658552	-0.507677	1.610786
2.280330	1.266799	-2.501733	-0.209993	1.657131	2.590278
2.049885	1.905823	-6.326655	0.031718	1.586241	-0.792613
-5.226818	-2.101333	-5.566003	0.033328	-0.634660	-1.047790
2.694514	0.899923	6.376647	1.990276	0.168850	0.579154
1.345585	1.398364	-3.496903	0.233101	-0.340711	0.971470
1.307278	2.371431	-2.464508	-0.091845	-0.575106	0.460072
-8.153310	4.919455	-9.817394	0.864941	1.959696	-0.769755
-3.710165	2.838355	-6.162126	1.529432	-0.427771	-1.068857
-2.992622	-0.138152	-4.021928	0.238528	-1.756574	-0.468665
1.221536	2.024464	-0.402660	-0.926979	-1.325564	-0.799016
-5.896315	-9.076061	-2.472945	-0.812096	-0.481986	-0.312679
0.882947	-6.399524	-2.567113	0.384470	1.929703	-0.538078
-0.624735	-4.371253	6.857523	-0.820610	0.526882	1.853350
5.367432	-6.739352	-5.182859	0.594315	1.289320	-0.280800
-13.970754	-4.293080	4.098101	-1.699358	0.875260	1.111775
-8.494894	-7.248702	-3.713534	-1.373506	-0.707005	-1.190263
0.550640	3.881982	1.544373	-1.409467	1.623001	1.961288
6.681416	-7.634827	-2.436349	2.209143	-0.423803	-1.127302
-6.713235	6.612491	-0.079809	0.989526	1.515102	0.124033
-4.728401	-1.293572	-2.566841	-0.484108	-0.719831	-1.919904
0.399044	0.644140	-2.024204	-0.977900	0.126462	-0.551351
2.299659	-0.372046	-1.668207	-0.476104	-0.344046	-0.351905
-9.540461	6.606849	0.405324	-0.375489	0.689776	0.211828
-3.179153	2.850450	-4.069801	-0.061088	-0.711256	-1.242143
2.933569	3.063507	9.934446	1.027314	-0.440935	2.394458
1.763223	3.071301	4.198046	-0.617980	-0.356036	1.341405
-2.862362	-8.985929	1.726156	1.594905	-0.470590	-0.519525
-0.794153	-11.507044	4.921794	1.027289	-0.676775	0.591362
0.192627	-8.004223	3.260671	-1.290202	-0.885781	1.133970
6.268477	-5.053723	-1.232755	0.303181	0.770316	-1.473773
-10.254209	-4.006601	3.834324	-1.180744	0.029558	0.127200
2.040623	-10.312295	6.550576	2.607940	-1.027841	0.691422
-3.037241	-3.212001	3.637947	-0.660290	-0.340946	-0.146558
6.086970	-2.339737	1.103824	0.827798	0.491183	-0.950134
-10.703921	2.602750	-0.096657	-0.485395	0.472976	-1.251792
-1.866431	-1.982558	6.276074	1.748298	0.782946	0.659173
-2.225026	-3.297385	6.638280	-1.210780	-0.977963	0.529864
5.135200	-1.387989	5.029007	1.918351	-1.156671	0.069806
-7.370889	4.354431	2.817214	-1.150005	-1.565701	-1.209247
-2.815972	-0.596794	-0.260016	0.346100	-1.165495	-1.140651
-1.865354	6.158478	3.599062	-0.770287	0.568144	-0.025942
6.665561	1.705871	4.572976	0.092415	-0.748946	0.907470
64

-9.198765	-7.848931	-4.541100	-1.996547	-0.682926	-0.235094
0.380454	-5.261508	-12.770084	0.237348	2.199666	-1.065274
-8.290838	-11.935102	-9.920387	-2.202559	-1.231587	-0.699632
11.891678	-8.038934	-11.340132	0.243923	1.772634	2.896505
-9.496341	-2.382545	-7.568830	-0.273739	0.745481	0.050186
-3.858597	-5.918693	-8.660956	0.173816	-0.221103	-0.535669
-2.175382	-3.892593	-10.262655	-0.426810	0.301337	-0.936781
1.319947	-5.422268	-5.339103	-0.573248	-0.535299	0.812890
-9.702361	0.101985	-7.042149	-0.337562	0.355908	0.518596
-9.585897	-7.821268	-8.097700	-1.027218	-1.163576	-1.792667
-4.584160	-1.274340	-11.191663	-0.997124	-0.246108	0.109027
4.088988	2.187843	-7.072112	0.756919	0.536943	0.488808
-7.166601	3.996248	-2.959110	0.421053	-0.457854	1.556561
-4.995351	9.947108	-6.097634	-0.078652	1.729319	-0.806465
-2.459320	0.501425	-12.196388	-1.128499	-0.791273	-1.850811
3.260887	7.976741	-5.900017	0.286672	0.479083	0.487132
-6.038973	-3.388073	1.237166	0.035954	1.905741	0.813336
-4.468626	-7.592612	-3.315375	-1.010579	0.788822	-0.903066
3.726409	-11.862950	-3.464491	0.212498	-1.776051	0.122235
1.611479	-7.494183	-9.254952	-0.590766	-0.193269	0.244922
-8.425390	-2.132635	-1.319843	0.543803	0.348504	1.343998
-6.292123	-8.527997	1.450093	-0.662514	-0.474201	1.644691
2.601245	1.294745	-2.537390	2.138513	-0.345090	-1.106639
2.047787	2.242189	-6.473306	-0.053051	1.769689	-0.659746
-5.250069	-2.266771	-5.812639	-0.131086	-0.798432	-1.209569
3.073226	0.931116	6.519915	1.846397	0.136142	0.862763
1.410629	1.359357	-3.286302	0.391959	-0.034756	1.127246
1.283587	2.271244	-2.420197	-0.067880	-0.527185	0.109721
-7.980378	5.311786	-9.970946	0.864854	1.966649	-0.766725
-3.408516	2.746276	-6.359666	1.492300	-0.484712	-0.924494
-2.944829	-0.490216	-4.115422	0.238486	-1.765565	-0.465239
1.049137	1.765160	-0.564311	-0.785205	-1.266488	-0.851162
