100

-1.150127	0.966680	4.423217	0.077970	-1.728347	0.159691
-3.157919	3.083622	3.062743	-1.258616	0.856982	0.683452
-0.124095	5.397454	-2.757627	0.453956	0.000388	1.895375
0.790121	-4.468667	-1.551963	-0.520726	-0.330667	1.217471
-1.777696	-3.719515	-1.445078	1.716889	1.356313	1.928323
-0.245368	0.267093	0.311693	1.148494	-0.231117	-0.422997
1.393846	-1.618039	-3.769513	-0.379929	-1.398572	-0.108397
3.261160	0.435401	-2.310147	-0.384416	-0.209927	-1.091902
2.605669	0.559382	-0.823433	-0.379549	-0.372347	-1.574904
-1.565955	-2.240117	-1.572926	-0.280296	1.352062	0.089803
-1.088757	2.313227	-2.537032	0.542667	0.619734	-0.231601
1.162567	0.095771	3.026850	-0.208656	-0.935649	0.698388
0.779511	-0.931404	-1.615838	0.659644	-2.298416	1.045746
-1.798402	1.866266	-0.464137	-0.607429	0.229954	-0.389641
3.071460	-1.939252	0.717447	1.438795	1.220437	-0.844245
0.302499	0.023621	2.280441	-1.701836	-0.468415	0.337852
0.410601	-0.516593	-0.519718	-0.546287	0.112103	-0.966990
-0.545522	0.700959	-3.454408	-0.204095	1.734033	0.039193
-2.836700	-0.255979	-0.231140	0.941254	0.442585	0.009809
2.020671	-0.592281	-2.902767	-0.023815	-1.749715	-0.052548
1.337191	-1.517233	-0.017382	-1.147569	-0.065243	0.333579
-3.072484	-3.749542	2.708183	-0.084964	-0.696454	-0.967352
0.126248	2.703491	0.693975	-0.524028	-0.748162	1.150720
1.640121	0.560064	-1.118680	0.145637	1.250259	0.769991
-1.771641	1.165929	2.305465	-1.652205	1.468516	1.467731
-2.060281	-0.703084	0.399178	1.100374	1.287723	0.577212
-0.917924	-0.967041	0.163928	0.848290	-0.694553	0.871243
0.320598	0.713441	1.055791	-0.926591	-0.778670	-0.033948
-1.555142	3.672302	0.623191	-0.507498	1.089784	1.069819
-0.296970	2.668587	1.607354	0.589159	0.004623	0.080052
-0.083243	1.227586	-0.710443	0.351871	0.741070	-0.428264
2.291865	-0.306447	-1.479502	-1.266842	-0.640200	-1.930567
0.513842	1.006045	2.721967	-0.880647	-0.215161	0.508646
1.639890	0.796507	1.099374	-0.035811	0.044770	0.720882
2.255801	-0.947591	0.141474	1.295779	-0.995411	1.009027
0.494563	2.582214	-2.059979	-0.922681	1.179060	-0.258895
-1.157188	-0.917885	-2.625692	1.092085	0.303743	-0.530277
-4.799898	2.355589	0.888674	-1.103035	-0.606835	0.070477
1.794731	-1.410567	-1.581630	1.131958	0.564109	-0.636190
1.829486	-2.158633	1.201853	-0.241443	0.460734	0.404918
0.225754	-0.010508	-1.845502	0.292259	-0.409243	-0.663824
3.493520	-1.002938	-0.696612	-2.046220	-0.092260	0.347750
-0.672298	3.398054	-3.098392	-0.446167	-0.552519	-1.100204
-0.872555	-1.188901	-1.069735	0.600901	-0.014465	0.042355
3.654810	-5.377004	-1.154377	1.338305	0.655279	-0.729195
-1.000345	-3.121502	0.319970	0.826206	-0.512521	3.107397
1.065886	2.132326	-0.398751	2.274740	0.838059	0.967798
0.738304	-2.325152	0.635221	0.572317	0.000265	-2.161370
-0.199331	1.011182	-1.724133	1.125586	-0.645613	-0.862511
-0.491064	2.400123	-1.424389	-0.472402	-1.049368	-0.548480
3.925341	-0.662122	-1.933433	0.703530	-0.315425	-0.625345
0.064725	1.738483	-2.420813	0.498180	-0.038666	0.126166
-2.039437	-1.464500	1.141020	-0.326627	0.351945	0.485167
-2.971401	-2.370307	-1.011040	-1.145888	0.014607	1.851991
3.369768	0.411845	2.171655	-0.919813	-0.917456	0.045189
1.536528	-0.689199	-0.773172	-0.050893	-0.032361	0.847032
-1.544294	2.515378	1.159359	-1.078771	0.841071	-0.276109
-2.098215	3.806931	-0.425935	0.061560	-0.036834	2.004566
-0.472748	-2.059144	0.596713	-0.589466	-0.076300	-1.140631
0.878801	-4.451968	1.747952	-0.451259	0.848211	0.776681
100

-2.168077	-2.295553	-4.181290	-0.785495	2.198517	0.776842
-3.181025	-1.676859	-4.259885	0.981026	-0.615723	-1.150220
-1.187094	0.163201	1.493396	1.491177	1.210864	0.369428
-1.153350	-2.114821	1.662530	-0.065622	1.500776	0.095675
-3.577927	0.927382	-3.578469	-1.797785	-1.101414	-0.904301
-1.804893	0.308261	2.711112	0.152431	1.291199	-0.779675
1.473328	3.588965	-1.516182	0.950896	2.445965	-1.646373
0.798007	-2.631239	1.592779	-1.475107	-0.996376	-2.484990
0.510260	-3.472850	2.249931	0.399028	0.641272	0.641168
2.238919	-2.382244	2.291689	-0.373759	-1.173338	-0.163954
1.938011	-3.368050	-1.766078	-1.263400	-1.177841	-0.113204
-5.185292	-1.544707	1.110587	-0.545784	-0.622705	0.506221
-1.788115	2.932298	-3.256547	-0.044598	-0.612931	-1.521341
-0.003111	-1.744979	-0.158719	-1.435840	0.096427	0.594858
2.139463	-2.865778	0.230523	1.723770	0.521455	0.814412
0.271653	2.933766	-0.427808	1.046450	1.885960	-0.367901
1.022189	-0.183201	1.475965	0.088213	0.217501	0.436053
3.392374	-2.124968	-1.998483	-0.438176	0.567371	0.426204
-1.801911	-0.396405	2.054140	-0.027095	1.312768	1.567424
1.582551	1.409021	-0.296358	0.593003	0.982142	0.453497
2.618613	1.535581	-0.796330	1.434652	-0.397744	-0.375686
1.256230	-1.782624	3.079480	-1.619306	-1.380803	0.630335
0.258401	-0.833182	0.284607	0.956150	-1.140728	-0.712732
-4.371084	-2.277081	-0.461854	2.731406	3.125582	0.090543
0.740295	0.235220	0.260215	-0.440406	-0.233821	0.028461
-1.531254	1.543314	3.590750	2.247466	0.199259	0.041572
2.122744	-0.079028	1.940244	-0.838360	-0.660297	-0.416814
-2.863582	2.452413	1.052585	1.711828	-1.136241	-0.158658
-3.790580	0.145249	0.111496	-0.762645	0.552227	-0.272849
1.759247	1.837413	1.974124	-0.814378	0.324836	0.833239
-0.857611	0.667178	-2.488813	-0.391097	0.117117	-0.747426
-2.708443	-1.041203	-2.497063	-0.653663	0.315167	0.613391
0.558301	1.672261	-0.036840	1.065113	0.767971	-0.622022
-0.560114	-0.849013	1.451277	1.274950	-0.004119	0.786015
-0.760865	-0.304378	-1.779005	0.605659	-0.262623	-1.319886
0.555494	3.856681	-0.977698	-0.675078	-1.126246	-0.914585
-2.990033	1.371269	1.655460	-0.727135	-1.154689	-1.676784
4.130447	0.361632	-0.156913	1.354077	0.779272	-1.204295
1.025433	-0.796968	2.405682	-0.778827	0.327368	1.947229
-3.208066	-4.724042	0.720627	-1.201072	-1.773031	0.614473
-1.011530	0.714676	4.414601	1.605655	-0.700928	-0.024377
-3.272723	3.104305	3.464672	-0.329156	-0.162052	2.383098
-0.045039	5.327404	-2.570488	1.467511	0.090304	0.433327
0.810086	-4.435395	-1.299650	0.354462	0.975223	0.729066
-1.440253	-3.325392	-1.369089	0.779441	2.201129	-0.031881
-0.253773	0.380376	-0.015285	-1.191319	0.802867	-2.220991
1.360890	-1.687753	-3.847841	0.829363	0.059099	-0.962584
3.156128	0.399898	-2.492875	-0.774193	-0.199482	-0.712871
2.710351	0.430516	-1.094356	-0.189614	-0.825469	-1.351442
-1.408825	-1.942935	-1.386620	1.270860	1.511518	1.413329
-0.949296	2.408184	-2.532991	0.846119	0.451773	0.101869
1.048428	-0.076457	3.175564	-0.824670	-0.841628	0.783683
0.944364	-1.135701	-1.495884	1.345951	0.827940	-0.324828
-1.945332	1.794764	-0.262419	-0.789279	-0.544397	1.206134
3.024180	-1.907454	0.510406	-0.626691	-1.144574	0.568798
0.036457	-0.013802	2.221987	-1.071841	-0.137782	-0.528567
0.349693	-0.483263	-0.810560	-0.278918	-0.132942	-1.107130
-0.593610	1.063989	-3.589030	-0.311618	1.658836	-0.876194
-2.775990	-0.066146	-0.133907	0.993582	0.419965	0.473917
2.107320	-0.768863	-2.948151	0.307056	-0.746462	-0.176975
1.123455	-1.402895	0.065208	-1.193200	1.052812	0.592685
-3.105675	-3.864802	2.568470	-0.304838	-0.093550	0.032874
0.233135	2.582422	0.645525	1.044973	-1.166460	-0.262591
1.465161	0.633480	-1.109149	-0.412876	-1.316209	-0.497358
-2.092776	1.439887	2.657231	-1.887921	1.130223	1.683635
-1.820030	-0.612337	0.550279	1.260948	0.065517	0.782520
-0.772137	-1.126042	0.314464	0.123734	-0.750533	0.690472
0.281711	0.644311	1.216731	0.096764	-0.330174	1.214993
-1.573301	3.607843	0.755137	-0.534701	-1.100640	0.428988
-0.559436	2.802951	1.733762	-1.708815	0.530330	-0.363554
-0.119104	1.365443	-0.813213	-1.860149	0.131003	-1.304635
2.053081	-0.320247	-1.853161	-1.159183	0.819737	-1.843431
0.390500	0.876999	2.811547	-0.385118	-1.096878	0.406348
1.599059	0.802076	1.233781	-0.240212	0.011351	0.747467
2.481640	-1.124391	0.297548	0.100257	0.518915	0.162690
0.352231	2.911201	-2.013840	-0.739462	1.579443	0.477860
-1.083050	-0.862140	-2.772305	-0.902515	0.128742	-0.960476
-4.714533	2.213733	1.003370	1.384826	-0.905962	0.897215
2.008867	-1.417002	-1.701996	1.069187	-0.732832	-0.631216
1.773387	-2.161187	1.113444	-0.436148	-0.580072	-1.498036
0.551908	-0.062210	-1.677366	2.631539	-0.541290	1.157678
3.190363	-1.222023	-0.722295	-1.527547	-1.365275	0.015462
-0.756522	3.218889	-3.244723	-0.333516	-0.684766	0.323493
-0.748637	-1.208078	-1.012208	0.865303	-0.000679	0.585932
3.707895	-5.354664	-1.268701	-0.290237	-0.370248	-0.499095
-0.962586	-3.099265	0.672636	-0.957195	0.053917	1.196868
1.455216	2.515091	-0.324438	0.346765	-0.652901	-0.336129
0.729848	-2.431639	0.468044	-0.028605	-0.305698	-0.113731
-0.056096	0.852002	-1.872643	1.381669	0.071163	0.122401
-0.453519	2.105313	-1.584075	1.510705	-2.020926	-1.043479
4.089034	-0.611765	-1.939152	0.600130	0.538796	0.243081
0.064692	1.822198	-2.477469	-0.348898	0.945984	-0.257010
-2.046191	-1.392228	1.290180	-0.251915	0.509683	0.460044
-3.214575	-2.342496	-0.657289	-1.329012	0.371160	1.911033
3.111327	0.220842	2.184929	-1.573178	-0.741161	-0.073665
1.526147	-0.654112	-0.588713	-0.002742	0.465791	0.665970
-1.795737	2.468810	1.226950	-0.972627	-1.342991	0.242841
-2.027108	3.811834	-0.182289	1.053600	0.059782	-0.781532
-0.572524	-2.174095	0.539146	-0.521685	-1.259571	1.318697
0.829590	-4.433938	1.779105	-0.633474	-0.998818	-0.384034
100

-2.336379	-2.254101	-3.915494	-0.486963	0.061925	0.978578
-3.181549	-1.678879	-4.417063	-1.139228	0.611334	-0.312054
-0.804350	0.413002	1.560366	1.294342	1.157811	0.204813
-1.072360	-1.788767	1.745118	0.245838	1.548055	0.271775
-4.019470	0.738414	-3.512514	-1.830543	-0.727328	1.279674
-1.791365	0.818559	2.769758	-0.008766	1.691638	-0.070819
1.447089	3.695712	-1.771069	0.460312	-0.116429	-0.438164
0.533641	-2.823264	1.253951	-1.006010	-0.375272	-0.364796
0.587392	-3.383997	2.327422	0.736995	0.607356	-0.437548
2.152688	-2.602086	2.234508	-0.392391	-1.025174	-0.516706
1.622118	-3.598675	-1.715402	-1.772226	-1.031067	0.536423
-5.313859	-1.635989	1.183021	-0.790591	-0.365242	0.210932
-1.795589	2.760995	-3.569673	0.493886	-0.582389	-0.158228
-0.091372	-1.838744	-0.202515	0.390883	-0.905461	-0.001477
2.377962	-2.965074	0.482813	-0.644336	-2.060489	0.712384
0.400820	3.007127	-0.433925	-0.086831	-1.186831	-0.767075
0.930483	-0.172741	1.546355	-1.287331	-0.482904	0.224531
3.330225	-1.924239	-1.866004	-0.383342	1.359433	0.912723
-1.856704	-0.502839	2.129340	-0.561638	-0.309994	-0.059792
1.818670	1.388909	-0.233543	1.460346	-0.851967	0.207168
2.877276	1.405273	-0.836296	1.149592	-0.960139	0.006468
0.963503	-1.990253	3.190441	-1.750550	-0.595321	-0.230784
0.105926	-0.683417	0.344775	-1.630074	0.818122	1.090937
-4.095290	-1.730764	-0.547671	1.201115	2.055228	-1.648371
0.739406	0.174675	0.277895	0.299744	-0.099391	0.105444
-1.139822	1.497821	3.689903	1.271413	-0.957951	0.636865
1.922236	-0.368541	1.854700	0.019603	-1.851468	0.087106
-2.909348	2.227695	0.944563	-0.567457	-1.530458	-0.369318
-4.081618	0.180357	-0.048287	-1.958743	0.180658	-0.754593
1.647243	1.907770	2.151785	-1.119636	0.001875	1.163945
-0.755047	0.581644	-2.676675	1.738294	-0.940877	-0.636263
-2.709679	-0.898643	-2.421754	2.343829	1.914745	-1.235713
0.705717	1.811088	-0.187459	0.304983	0.079919	-0.535047
-0.327499	-0.869303	1.539167	1.001678	-0.564769	-0.220323
-0.617797	-0.306589	-1.956286	0.246969	-0.078067	-0.536390
0.515560	3.893415	-1.294717	-0.041007	1.716360	-1.004281
-2.938029	1.362160	1.608407	0.107146	-0.018614	0.339783
4.377373	0.503432	-0.430565	0.354063	0.724497	-1.503250
0.873395	-0.917839	2.554419	-0.377467	-1.220102	-0.241123
-3.469828	-5.052695	0.572178	-0.075495	-0.079449	0.182684
-0.855947	0.547724	4.403036	-0.149536	-1.039835	-0.688100
-3.385402	3.114766	3.896489	-0.837752	0.272094	2.160996
0.191171	5.302285	-2.589384	0.758917	-0.358666	-0.560070
0.855225	-4.199589	-1.156590	0.228073	1.026917	0.128311
-1.242248	-2.894632	-1.429926	1.234249	2.134421	-0.541976
-0.489479	0.385844	-0.433285	-0.301398	-2.414211	-0.978058
1.548298	-1.692452	-4.022150	0.957036	0.147779	-0.715549
3.005010	0.334299	-2.609657	-0.662358	-0.419267	-0.199362
2.513630	0.230703	-1.325393	0.129844	-1.320091	-1.373221
-1.325971	-1.790211	-1.188283	0.464766	0.619047	0.165808
-0.779920	2.494398	-2.429541	0.703736	0.870896	0.518029
1.097484	0.076940	3.127208	0.242640	2.115246	-2.459475
1.284863	-1.057742	-1.549534	2.099530	-0.419278	-0.164102
-2.127180	1.662716	-0.025678	-1.045213	-0.773046	1.201114
3.120665	-2.174656	0.555369	0.197592	0.393970	-0.541505
-0.146961	-0.051955	2.188377	-0.434775	-0.448349	1.320803
0.364639	-0.575726	-0.713222	2.478593	0.789774	0.742956
-0.604932	1.314703	-3.702785	0.289227	0.960894	-0.147353
-2.574549	-0.003734	-0.065861	0.877944	0.306360	0.250966
2.083173	-0.901476	-2.990194	-0.491969	-0.546282	-0.231717
1.088042	-1.277616	0.293584	-0.435992	2.428211	2.128688
-3.271112	-3.841571	2.507925	-0.724555	0.468147	-0.451613
0.230322	2.281498	0.618175	-0.723229	-1.544183	-0.259090
1.630863	0.476288	-0.975843	1.194679	0.865190	2.079345
-2.382644	1.617414	3.017996	-1.266759	1.327538	2.178881
-1.541113	-0.455226	0.597807	1.232243	1.717474	-0.184085
-0.827985	-1.249889	0.519848	0.023073	-1.060334	1.211055
0.169454	0.457477	1.318867	-1.016249	-0.494283	-0.677850
-1.851381	3.438538	0.852581	0.782282	-1.229784	1.468750
-0.763564	2.868227	1.676602	-0.800568	0.506823	0.561928
-0.379614	1.352813	-0.830512	-0.114783	1.921528	0.308396
1.883218	-0.187489	-2.115394	0.778349	0.061910	0.121456
0.259534	0.659390	2.900224	-0.950882	-0.879183	0.253427
1.544567	0.790309	1.303035	-0.660667	-0.071336	-0.537276
2.395961	-0.900729	0.237470	-0.641783	1.045568	-0.625622
0.185476	3.160187	-1.921287	-1.094473	0.423072	-0.125471
-1.229460	-0.760034	-2.953413	-0.225201	0.731265	-0.326028
-4.432618	2.038141	1.125379	0.930629	-0.727412	-0.269055
2.368893	-1.239800	-1.820631	-0.345699	0.358731	1.117986
1.665496	-2.205115	0.852871	0.276024	0.519430	-0.228265
0.809176	-0.102118	-1.564488	-0.995987	-0.552069	0.481490
2.899288	-1.380278	-0.717443	-1.067919	0.993985	-0.457623
-0.784021	3.343464	-3.142607	-0.116417	1.333516	-0.164442
-0.542379	-1.100076	-0.831629	-0.970228	-0.100776	0.512732
3.834780	-5.438312	-1.399982	0.789881	-0.360870	-0.679318
-1.093248	-3.395717	0.575924	-0.487858	-1.686441	-1.749732
1.413982	2.543177	-0.433529	0.027368	1.116610	-0.683820
0.843497	-2.291505	0.297328	-0.240704	0.424684	-1.164333
0.297968	0.896199	-1.866627	1.548849	0.245064	0.091233
-0.296806	1.903926	-1.736144	1.172232	-0.411681	-0.465544
4.076086	-0.499178	-1.898710	-0.221910	0.524908	0.005390
0.139150	1.894460	-2.826368	0.377643	-0.523665	-2.011710
-2.088698	-1.155841	1.336125	-0.417572	0.319685	0.365636
-3.071692	-2.384917	-0.387447	1.552153	-2.023117	0.956651
2.902209	0.126233	2.198645	-0.923029	-0.367861	-0.101776
1.475315	-0.570410	-0.563357	-1.174578	-1.310022	-1.199231
-1.775997	2.223481	1.493436	0.477073	-1.853396	0.706442
-1.874561	3.856926	-0.368122	-0.029294	0.140853	-0.090574
-0.475506	-2.264288	0.936464	0.970802	-0.153315	1.996147
0.711555	-4.480201	1.845689	-0.436493	0.365359	0.908210
100

-2.443335	-2.169027	-3.837365	-0.425293	0.552276	-0.083679
-3.283319	-1.531703	-4.481567	0.228174	1.256226	0.141541
-0.977866	0.588212	1.661322	-1.216725	0.517068	0.679632
-1.074256	-1.514148	1.778809	-0.314623	1.101562	0.351673
-4.020780	0.888990	-3.627708	1.375464	1.667392	-2.015809
-1.712521	1.077402	2.769535	0.635815	1.193554	0.142528
1.497670	3.701222	-1.783641	-0.648150	-0.002898	-0.130786
0.477229	-2.860028	1.190916	0.382938	-0.286867	-1.322844
0.755011	-3.150408	2.118873	0.617214	1.171140	-0.318512
2.070269	-2.803563	2.075503	-0.552856	-0.913119	-1.080345
1.546092	-3.532343	-1.769763	0.407999	1.255996	-0.614152
-5.292461	-1.691199	1.189400	1.803096	-0.134174	-0.284816
-1.674929	2.790428	-3.319172	0.121514	0.226771	1.771301
-0.141813	-1.926219	-0.217913	-1.090259	0.080390	-0.304122
2.045551	-3.175331	0.465706	-1.762316	-0.865703	-0.370762
0.300891	2.685970	-0.674036	-0.537651	-1.794203	-1.255857
0.769738	-0.413420	1.654470	-0.667856	-1.248934	0.522910
3.345989	-1.681845	-1.636096	1.753861	0.288260	1.388276
-2.048780	-0.409615	2.135840	-0.912851	0.766413	-0.096162
2.068202	1.310643	-0.183690	1.090723	0.157293	0.362227
3.080737	1.141259	-0.795724	0.970168	-1.723907	0.357382
0.569577	-2.061533	3.107925	-1.936449	-0.169276	-0.289594
-0.206002	-0.554587	0.528314	-1.597363	0.673429	0.183506
-3.913956	-1.755618	-0.882942	0.346253	-2.256866	-1.765347
0.601134	0.123410	0.300310	-0.177230	0.049724	-0.702327
-0.981649	1.293681	3.695399	0.714258	-0.008297	-0.827307
1.902916	-0.687672	1.844270	-0.119447	-0.464767	-0.449620
-2.847906	1.879425	0.909947	-0.564922	-0.757081	0.680884
-4.116953	0.152830	0.273383	0.027482	-0.080418	1.651012
1.428425	1.858956	2.374350	-0.109531	-0.311795	1.198583
-0.881504	0.349899	-2.705081	-1.389854	-0.764429	-0.097189
-2.371424	-0.576347	-2.783402	1.219731	0.933653	-1.997126
0.812166	1.776708	-0.111129	0.922868	-0.110356	0.783614
-0.151140	-0.943745	1.500923	0.501553	0.058421	0.695081
-0.579490	-0.486828	-2.053645	0.762178	-1.094670	0.497250
0.498822	4.313482	-1.367319	-0.707873	1.769299	0.088624
-2.968020	1.182808	1.831660	-0.406104	-1.570692	1.631034
4.303596	0.699235	-0.588315	-0.234427	1.049625	0.030282
0.927360	-1.159232	2.384963	-0.163221	-0.634182	-0.316025
-3.365262	-5.014352	0.709633	1.154592	0.511063	1.425013
-0.876016	0.487621	4.358466	0.311838	-1.058745	0.446598
-3.448312	3.134145	4.375231	0.469835	-0.258592	2.811508
0.352137	5.296537	-2.593709	0.074029	-1.102088	1.077864
0.715190	-4.233385	-1.134223	-0.239040	-0.632771	1.615446
-0.933277	-2.593000	-1.585265	1.549661	0.846037	-0.746481
-0.468214	-0.051091	-0.607223	-1.894899	0.810369	-0.865443
1.562925	-1.630590	-4.027801	-0.693793	-1.043743	-0.003131
2.858463	0.277502	-2.546103	-1.038404	0.147839	0.467084
2.857107	-0.020367	-1.494627	2.214959	-1.286197	-0.354017
-1.303718	-1.591372	-1.308515	-0.567835	1.604848	-0.720817
-0.717831	2.637815	-2.451183	-0.528334	-0.323258	-1.145077
1.103986	-0.027980	2.957978	1.204607	-1.600459	-0.220427
1.333285	-1.108423	-1.770921	-0.553593	0.895354	-1.951771
-2.319066	1.469665	0.189813	-0.012984	-1.808343	-0.135296
3.084285	-1.968967	0.591741	0.186914	0.802970	-0.118357
-0.235676	-0.244360	2.409811	-0.794381	-0.868297	0.166566
0.482250	-0.548024	-0.400921	1.449679	-2.066553	1.325587
-0.557947	1.477851	-3.715655	-0.756474	0.363016	-0.861293
-2.403821	0.074554	-0.032854	0.852449	0.565306	0.047758
1.962027	-1.011996	-2.957275	-0.734025	-0.834361	0.427870
1.024745	-0.735679	0.654348	-0.230491	2.544506	1.675685
-3.260265	-3.713091	2.419757	0.120539	0.566760	-0.550922
-0.039918	2.025367	0.657185	-1.666682	-0.962579	0.536432
1.622599	0.771696	-1.072970	-0.480246	1.122063	-1.296973
-2.636641	1.898684	3.455643	-1.173346	1.255736	1.991354
-1.290164	-0.118971	0.564910	1.441621	1.547040	-0.199819
-0.850878	-1.470232	0.742311	-0.627489	-0.146288	0.235740
0.168689	0.541177	1.137463	-0.651213	1.255446	0.907629
-1.548610	3.191257	1.201384	-0.192429	-0.121358	0.217339
-0.878008	2.846215	1.846496	1.811932	-1.351612	2.070341
-0.359055	1.662543	-0.720511	0.414317	1.414533	0.525958
1.898954	-0.295070	-2.207779	-0.355349	-0.521581	-0.528739
0.277629	0.766308	2.844727	0.043210	-0.473721	-0.355298
1.341229	0.768649	1.202527	-1.280681	-0.225006	-0.526584
2.220535	-0.722805	0.064258	-0.459883	0.225739	-0.717893
0.014996	3.209880	-1.953976	0.534383	0.892428	0.403678
-1.162946	-0.596855	-2.904120	-0.029545	0.504564	-0.466322
-4.276057	1.876559	1.037571	0.710005	-0.994442	-0.340991
2.452508	-1.123018	-1.735895	-0.649333	1.694609	-0.703540
1.811812	-2.090110	0.802012	0.587387	0.461193	-0.590151
0.700898	-0.155163	-1.638984	-0.217728	-0.547675	-0.567729
2.943032	-1.126656	-0.736290	1.930219	1.694858	0.793637
-0.828065	3.604968	-3.199623	-0.255744	1.261101	-0.278178
-0.601922	-1.009061	-0.650734	0.106549	-0.687068	1.170078
3.819666	-5.345440	-1.589602	-0.844682	0.851661	-1.502828
-1.195795	-3.698224	0.305443	-0.535945	-1.499373	-1.006561
1.491401	2.771430	-0.578702	0.435330	1.064528	-0.717541
0.882953	-2.238009	0.183605	1.036470	-0.071717	0.049855
0.533013	0.878748	-1.895050	0.808722	-0.815927	-0.898563
0.063657	1.908863	-1.896146	0.632627	0.785705	-1.986082
4.237482	-0.524639	-1.909386	1.272576	-0.387693	0.338141
0.153071	1.759556	-2.977178	0.563128	1.814530	1.128552
-2.187436	-1.282651	1.279334	-0.438288	-1.177889	-0.445116
-2.861657	-2.823020	-0.437151	0.765429	-2.017604	-0.478462
2.699502	0.048803	2.136061	-1.032441	-0.319762	-0.200552
1.526666	-0.564052	-0.650260	0.480398	1.955048	-0.065220
-1.680863	1.729242	1.356223	0.456348	-2.326108	-0.906207
-2.025486	3.854675	-0.239491	-1.026640	0.026450	0.683257
-0.419264	-2.253471	1.208396	-0.851096	-0.621563	1.444396
0.517976	-4.519688	1.969894	-1.153029	-0.908780	-0.365942
100

-2.522897	-2.091121	-3.884200	-0.520535	0.014953	-0.119958
-3.270953	-1.300588	-4.381915	0.296254	0.596195	0.352262
-1.214701	0.577638	1.804388	-0.880797	-0.860771	1.136868
-1.211446	-1.309341	1.877702	-1.052104	0.823224	-0.006465
-4.020005	1.078087	-4.037814	-0.599960	0.192820	-1.271848
-1.551029	1.302510	2.760180	0.853166	1.065342	-0.417070
1.255514	3.613801	-1.953492	-0.628392	0.032616	-1.162011
0.536737	-2.889729	0.821175	0.140954	-0.325331	-1.486704
0.896835	-2.954104	2.157465	0.481146	1.024443	0.196258
1.897971	-2.979583	1.799366	-0.462915	-2.126596	-1.580760
1.599942	-3.233937	-1.816441	0.177432	1.577224	0.131322
-5.008605	-1.676703	1.063738	0.757116	0.442474	-1.042265
-1.679096	2.875352	-2.999663	-0.456522	0.763123	1.056433
-0.200637	-2.117460	-0.150585	0.362557	-1.541661	0.783798
1.706818	-3.263032	0.327228	-1.656053	-0.036110	-0.724209
0.411586	2.556263	-0.969338	1.660848	0.802740	-1.444620
0.700335	-0.328794	1.912786	-0.938525	1.309191	1.009116
3.537478	-1.623417	-1.334177	-0.329907	0.293182	1.574404
-2.084636	-0.191368	1.697655	0.016039	1.113774	-2.464306
2.269231	1.334538	-0.071708	0.956104	0.036672	0.927916
3.221084	0.714185	-0.824412	0.028904	-2.155846	-1.123429
0.219520	-2.005676	2.955332	-1.955708	0.150384	-0.836142
-0.294630	-0.517532	0.476154	0.655967	-0.258371	-0.460462
-3.868376	-1.866456	-1.018158	-0.196941	0.823965	-0.154601
0.535062	0.445510	0.202196	-0.391455	1.682071	-0.342201
-0.771527	1.410359	3.535405	1.486591	1.052111	-0.588925
1.729969	-0.674851	1.770501	-1.906795	0.096814	-0.203509
-3.031290	1.890055	1.191249	-0.883828	0.891435	1.763923
-4.081917	0.240636	0.515603	1.087376	0.777979	0.373441
1.348674	1.891449	2.587767	-0.474594	0.326225	0.761174
-1.051687	0.363534	-2.701329	-0.754709	-0.423680	-0.977976
-2.266300	-0.434163	-2.702232	0.048648	0.977917	1.040123
1.030959	1.818713	0.208677	0.988106	0.180087	1.714856
-0.189673	-1.088666	1.586637	-0.133806	-1.158379	-0.052071
-0.443591	-0.645188	-1.776631	0.202101	-0.473165	1.768472
0.266423	4.651869	-1.320180	-1.139795	1.479823	0.151028
-2.722485	0.968737	2.063224	2.244763	-0.609693	0.810625
4.288784	0.871046	-0.609167	0.666286	0.647483	-0.425579
0.800596	-1.273234	2.515003	0.514921	-1.079032	-1.180354
-3.210429	-5.028849	0.996730	0.204537	-1.028960	1.254831
-0.958357	0.373264	4.138610	-0.649182	0.034174	-0.940645
-3.361086	2.906657	4.714766	0.587270	-1.892310	0.063242
0.330255	4.923020	-2.508432	-1.787368	-1.035401	0.778892
0.671690	-4.375331	-0.971769	-0.639964	-0.616250	0.568436
-0.864419	-2.388537	-1.646609	0.182464	1.141640	-0.329599
-0.720481	0.125260	-0.430063	-0.966804	0.436560	1.671405
1.607730	-2.028350	-4.078629	0.398494	-0.736648	0.347142
2.770197	0.350598	-2.539720	1.127926	0.876824	-0.570545
3.255407	-0.333511	-1.527647	2.163311	-1.146011	-0.511091
-1.227166	-1.324120	-1.372169	1.946144	0.608389	0.322960
-0.736270	2.516842	-2.656319	0.546244	-0.994059	1.119697
1.311198	-0.254382	2.661252	0.943488	-1.108602	-1.231668
1.250508	-1.074158	-2.133380	0.477416	-0.706937	-0.628889
-2.226473	1.124163	0.218659	0.402269	-0.055183	1.425058
2.951359	-1.906008	0.574645	-1.083738	0.193725	0.163794
-0.308743	-0.340824	2.439507	-0.070427	-0.336072	0.273300
0.634448	-1.141905	-0.247891	0.460468	-3.018496	0.976390
-0.716583	1.583932	-3.838744	-0.784113	-0.174233	-0.608676
-2.226589	0.141759	-0.043034	1.097624	-1.507734	0.040998
1.794359	-1.225199	-2.959420	-0.318661	-1.004184	-0.714545
1.091126	-0.527100	0.832695	0.050455	0.097981	0.510852
-3.237464	-3.717480	2.303964	-0.015791	-0.505324	-0.749596
-0.347269	1.834745	0.762737	-1.418332	-1.074450	0.602184
1.511814	0.945867	-1.321562	-0.232182	0.320062	-1.336760
-2.878565	2.138233	3.817409	-1.298535	1.206510	1.755075
-1.166282	0.309845	0.508630	-0.259271	2.870648	-0.185769
-0.979569	-1.408361	0.684762	-0.527800	0.297607	-0.198660
-0.090081	0.609093	1.226082	-2.041989	-0.645354	-0.362549
-1.618567	3.260145	1.249430	-0.360742	0.776779	0.468215
-0.445279	2.544641	2.265438	1.546820	0.150567	-0.124017
-0.429802	1.734477	-0.565817	-1.086598	-0.679932	1.064045
1.866845	-0.063074	-2.157945	-1.374695	1.331669	1.000800
0.225475	0.508954	2.799432	-0.426980	-1.479177	-0.407066
1.006632	0.725269	1.162468	-2.206038	-0.130770	0.345155
2.304564	-0.834155	0.056912	0.459713	-0.702712	0.151069
0.364592	3.281860	-1.827928	1.033052	-0.404438	1.091517
-1.306757	-0.797125	-3.104896	-0.724315	-1.134291	-0.695699
-4.123487	1.591309	1.006455	0.946522	-1.060056	-0.940058
2.405953	-1.015187	-1.748027	-0.183252	-0.484552	0.329327
1.962693	-2.003082	0.695220	0.553192	0.448311	-0.393898
0.680824	-0.253647	-1.598510	-0.164136	-0.152249	0.559575
3.309132	-0.799835	-0.588072	1.824262	1.387468	1.038804
-0.853534	3.792041	-3.246525	0.078446	0.459564	-0.168337
-0.651762	-1.042273	-0.497386	-0.286393	0.813025	0.562124
3.775423	-5.154688	-1.904753	0.177733	0.726364	-1.600252
-1.303504	-4.052190	0.135497	-0.588202	-2.158788	-0.778257
1.506414	2.990097	-0.714901	-0.781482	1.082309	-0.466063
1.046012	-2.278553	0.145470	0.785903	-0.113367	-0.847102
0.678265	0.799867	-2.068109	0.753619	-0.112070	-0.559314
0.099589	2.111852	-1.829261	-0.093080	0.934622	1.061472
4.260558	-0.421660	-1.887679	-0.739331	1.691368	-0.606019
0.301237	2.146201	-3.200474	1.738500	1.140525	-1.354092
-2.094001	-1.424365	1.248204	1.272585	-0.068670	-0.280192
-2.624119	-3.220280	-0.360412	1.924012	-2.123661	1.474476
2.527956	-0.001039	2.172033	-0.720226	-0.178362	0.494478
1.522817	-0.110401	-0.868912	-0.163201	2.327247	-1.341827
-1.592841	1.280934	1.137823	0.249218	-1.825196	-1.614443
-2.137375	3.876551	-0.292051	-0.196983	0.221028	-1.041095
-0.538620	-2.358254	1.544576	-0.534535	-0.182549	1.817940
0.478139	-4.512240	1.975065	0.530720	0.876449	0.766921
100

-2.616616	-2.080807	-3.957688	-0.410530	0.240494	-0.672063
-3.238042	-1.225358	-4.336309	-0.110032	0.194020	0.069178
-1.339243	0.435125	1.928774	-0.612481	-0.080713	-1.642353
-1.183813	-1.273620	1.760270	0.491439	0.323355	-0.133829
-4.090463	0.924616	-3.956130	-0.354000	-0.787234	0.461476
-1.429071	1.443175	2.709777	0.317993	0.185306	0.133054
1.429832	3.775445	-2.249487	0.997494	0.181429	-1.524418
0.555254	-3.008975	0.586209	0.189765	-0.858212	-0.969699
0.969215	-2.650326	2.151291	-0.157649	1.286584	0.090200
1.795896	-3.515698	1.436195	-1.623804	-2.018214	-1.424760
1.650340	-3.065041	-1.774004	0.380136	0.004393	-0.576033
-4.941784	-1.547054	0.915107	-0.751486	0.939771	0.148912
-1.708863	3.048037	-2.826478	0.248989	0.888946	0.761575
-0.057283	-2.370966	0.021684	0.893665	-1.118574	0.837146
1.626972	-3.161289	0.277297	1.109215	-1.642081	0.559877
0.682474	2.518823	-0.876206	0.273322	-1.428533	1.003912
0.360693	-0.101405	1.814693	-1.611096	0.280318	-1.011216
3.417122	-1.458321	-1.313340	-0.710285	-0.329989	-1.110565
-2.103625	0.040096	1.200474	-0.176487	1.414356	-2.565333
2.588019	1.256626	-0.034800	1.333386	-0.645813	-1.521310
3.262390	0.310415	-1.049771	0.513169	-1.114028	-0.394431
0.046310	-2.046487	2.893192	0.087068	-0.381223	-0.151817
-0.107521	-0.509157	0.480052	1.287939	0.415629	0.809536
-3.932372	-1.710981	-1.055373	-0.187231	1.692700	-0.165572
0.418979	0.756610	0.122908	-0.987638	1.181936	-0.513157
-0.451662	1.327454	3.429164	1.610313	-1.554711	-0.737437
1.516098	-0.824606	1.713027	0.073469	-0.927932	0.010920
-3.081545	1.952513	1.243411	1.734854	-0.237951	-0.695437
-3.940466	0.434282	0.573459	0.192906	1.068275	0.248513
1.678100	1.812235	2.652533	0.358390	-1.171639	0.425745
-1.205578	0.217130	-2.887760	-0.424796	-0.855742	1.219239
-2.340012	-0.298830	-2.707341	-0.083184	0.151782	-0.525714
0.790467	1.666713	0.339972	-1.873821	-0.536096	0.309336
-0.122338	-1.294423	1.562244	1.259309	-0.179973	-0.254835
-0.486053	-0.304156	-1.630742	1.631425	1.992330	1.055468
0.298767	4.579911	-1.081088	0.177273	-0.681925	1.064083
-2.282074	0.819706	2.188465	2.154888	-0.902780	0.526844
4.386082	0.854943	-0.785612	0.125646	-0.915511	-1.279161
0.827969	-1.421131	2.144166	-0.884801	-0.913376	-1.613409
-3.115280	-5.148250	1.295396	0.886761	-0.116546	1.775080
-0.885726	0.709888	4.201229	0.593407	2.660160	0.448711
-3.361537	2.718841	5.003910	-0.434232	-0.113893	3.018078
-0.066322	4.766662	-2.380640	-1.823105	-0.627102	0.635389
0.484373	-4.449626	-0.841762	-0.803273	-0.291050	0.608266
-0.758197	-2.216132	-1.775931	0.535921	0.399232	-1.196934
-0.746056	0.072743	-0.418883	0.693028	-0.477320	-1.727245
1.678730	-1.974348	-4.045961	0.820635	0.662527	-0.945689
2.895243	0.611667	-2.678370	-0.401498	1.991393	-0.995869
3.306507	-0.527535	-1.584276	-0.385373	-0.806728	-1.109858
-1.094627	-1.325272	-1.284327	-0.243336	0.236337	0.607881
-0.685938	2.582253	-2.421974	-0.334323	1.727075	0.212266
1.570061	-0.361113	2.852682	0.834546	-0.553084	1.532082
1.295767	-0.983887	-2.065358	-0.013703	1.910886	0.446034
-2.426688	1.058812	0.352672	-0.561500	-0.988282	0.953575
3.027497	-1.820284	0.551394	-1.073605	-0.088798	-0.728453
-0.495018	-0.597708	2.472980	-1.227962	-1.698482	0.047956
0.523779	-1.462871	-0.082512	-2.065439	0.942851	0.439923
-0.769910	1.461772	-4.002845	1.100751	-0.751151	0.435804
-1.863584	0.091831	0.148509	0.973277	-0.143120	0.735061
1.943054	-1.464283	-3.234972	1.030098	-0.748451	-0.915194
0.940706	-0.447195	0.795366	-1.482592	0.957604	-0.925850
-3.269008	-3.835587	2.443731	1.676332	-0.266397	1.187438
-0.636676	1.540694	0.859802	-1.139742	-1.729848	-0.605862
1.572839	1.166056	-1.617160	0.639293	2.277197	-1.386821
-3.071559	2.224094	3.918163	-0.641677	-0.426008	-0.940617
-1.114674	0.644616	0.444825	1.061578	1.458912	0.302873
-1.028627	-1.345448	0.673959	0.289889	0.362125	-0.116525
-0.515111	0.490253	1.193329	-1.256819	-0.665689	0.874752
-1.685913	3.495309	1.385767	-0.127830	1.268758	0.881643
-0.418876	2.609767	2.087483	0.154303	-0.780789	-0.180828
-0.479583	1.564285	-0.432583	0.361782	-1.113934	0.431527
1.554142	0.118518	-2.026049	-1.045845	0.317967	-0.554325
0.222137	0.374605	2.772969	-0.101189	-0.181353	0.141442
0.665910	0.662852	1.231286	-1.144057	-0.261596	-0.302386
2.408793	-1.014178	0.114401	0.614239	-1.157343	0.416802
0.181655	3.256228	-1.774663	-0.746102	0.235272	-0.421178
-1.431332	-0.844760	-2.943262	-0.536323	-0.385251	0.888071
-3.943562	1.517084	0.858417	-0.647428	-0.939783	0.342079
2.362408	-1.053532	-1.714072	-0.005218	0.340208	-0.258791
1.874057	-1.918750	0.730771	1.067826	0.384857	0.529672
0.643878	-0.215483	-1.620352	-0.692527	0.039698	-0.404092
3.543664	-0.847852	-0.471170	0.828610	-0.533801	0.934122
-1.128727	3.917834	-3.195564	-2.470877	0.899841	0.764699
-0.637075	-0.929540	-0.372019	0.196528	-0.572362	0.270264
3.879458	-5.122935	-2.221206	1.168836	-0.334136	-1.491270
-1.435044	-4.322446	0.154642	-1.178415	0.465518	0.829189
1.612527	3.234227	-0.879553	1.560333	0.679789	-0.490415
1.155551	-2.303592	0.018107	-0.566305	0.607652	-0.276474
0.735340	0.737442	-2.226488	-0.403714	-0.328959	-1.014272
0.064151	2.121090	-1.775217	0.628035	-0.534151	0.787485
4.404870	-0.318038	-2.072774	-0.128543	0.095772	-0.893360
0.417072	2.339540	-3.050870	-0.563482	1.192224	1.366718
-2.048931	-1.421148	1.020389	0.470930	0.986288	-0.730759
-2.257795	-3.661014	-0.060372	1.694422	-2.463627	1.557006
2.381333	-0.003152	2.256742	-0.525034	0.232700	0.162925
1.519669	0.190964	-0.969376	-0.029872	0.761311	0.979111
-1.633020	1.357335	1.365639	-1.601258	1.349364	2.305946
-2.147681	3.866517	-0.239638	0.210374	-0.090724	0.846100
-0.637683	-2.136416	1.620795	-0.607391	1.535117	-0.941941
0.577801	-4.485977	2.048015	0.435118	0.031748	0.606571
100

-2.772706	-2.016742	-4.087875	-1.101213	0.020839	-0.493075
-3.295470	-1.181813	-4.401732	-0.167837	0.505596	-0.946874
-1.399415	0.342127	1.742330	0.501588	-0.157333	0.508436
-1.281987	-1.082632	1.726726	-0.978643	0.723638	-0.590226
-4.187719	0.818279	-3.942791	-0.674695	-0.215262	-0.398923
-1.360204	1.387725	2.751893	0.574089	-0.539923	0.039286
1.609172	3.853432	-2.534847	0.641924	0.441524	-1.196390
0.777474	-3.117294	0.532698	1.733909	1.077045	0.061873
0.889135	-2.638649	2.250345	-0.205763	-1.996837	0.929030
1.363918	-3.600049	1.417188	-2.639096	0.234316	0.566679
1.714573	-3.150817	-2.002707	-0.073500	-0.331983	-1.120000
-4.943821	-1.411875	0.995318	1.386340	0.315831	0.432413
-1.692251	3.102203	-2.618805	-0.306014	-0.401507	1.430296
-0.005291	-2.424604	0.076164	-0.130919	0.232745	0.119989
1.826433	-3.531350	0.368590	0.118134	-1.691782	0.632217
0.782173	2.338462	-0.640553	0.714866	-0.328785	1.447587
0.221400	-0.313819	1.839590	1.526784	-0.500905	1.494456
3.304119	-1.782000	-1.423758	-0.509582	-1.436854	-0.290342
-2.187681	0.041222	1.187404	-1.212209	-2.300282	0.809894
2.524851	1.218871	-0.431270	-0.404316	-0.048054	-1.661375
3.407097	0.244580	-0.973038	0.302795	-0.698600	0.427149
0.039013	-2.146356	2.860679	-0.223849	-0.628302	-0.015063
-0.285160	-0.398888	0.600854	-1.944045	1.646705	0.326996
-4.043580	-1.285915	-0.947525	-0.815892	1.976003	0.870659
0.065461	0.603601	0.031026	-0.868404	-2.135509	0.299222
-0.188879	1.140828	3.120604	-0.384386	0.468683	-2.096683
1.579909	-0.869486	1.667217	-0.371672	0.352047	-0.025531
-2.736311	1.822983	1.097299	0.519657	-0.565664	-0.745222
-3.876821	0.208265	0.532622	0.486517	-2.546664	-0.494643
1.506216	1.512013	2.768503	-0.682732	-1.510197	0.937700
-1.041491	0.188151	-3.084841	1.421759	-0.268644	-1.833465
-2.382686	-0.117552	-2.907849	-0.586487	1.538418	-1.736239
0.549299	1.600428	0.441367	-1.066478	-1.908853	0.068628
-0.136229	-1.146153	1.300014	-1.714486	-1.333652	-1.776749
-0.462910	0.008886	-1.611756	-0.873315	1.093915	-2.177304
0.258053	4.516284	-1.120102	-0.435056	-0.064791	-0.580360
-2.180960	0.703913	2.457638	0.276714	-0.237631	0.944691
4.292934	0.695213	-0.784646	0.195525	-0.014782	0.390864
0.731942	-1.553656	2.069707	-0.272990	1.156568	0.086728
-2.943534	-5.088743	1.640827	0.870182	0.876259	1.604392
-0.709315	1.142549	4.208069	1.038624	1.824703	0.082897
-3.292937	2.578414	5.610187	-0.826688	0.661768	1.417558
-0.454436	4.690290	-2.231966	-1.510622	1.002165	0.544591
0.485795	-4.562389	-0.838904	0.188852	-0.997819	-0.235779
-0.883551	-2.002419	-2.086162	-1.587501	0.723869	-1.368996
-0.642903	0.138836	-0.572555	0.704654	-0.219871	-0.771305
1.742870	-1.969415	-4.145378	-0.148269	-0.345130	0.536073
2.798020	0.985103	-2.919625	-1.049880	1.748297	-1.023817
3.346914	-0.533225	-1.921818	0.177999	-0.078508	-0.894037
-1.183120	-1.206959	-1.250488	-0.581916	0.575718	-0.354852
-0.640848	2.887726	-2.435713	0.762008	0.887408	-0.421740
1.730669	-0.558441	2.922928	0.753574	-0.809788	-0.220294
1.319655	-0.918026	-1.925171	0.192926	-1.224738	0.843744
-2.290367	1.118703	0.556352	0.209009	1.796010	-0.135443
3.069267	-2.057736	0.560944	1.429233	-1.549086	0.914973
-0.517503	-0.844938	2.494318	0.757537	-0.799301	0.622957
0.239108	-1.284584	0.228748	-0.048531	0.115289	2.045803
-0.421180	1.253727	-3.757970	1.783210	-1.307438	1.269582
-1.756596	-0.067847	-0.155025	0.623908	-0.294927	-1.883479
2.174804	-1.432436	-3.243308	1.379255	0.322531	-0.387584
1.013641	-0.201969	0.769909	0.948066	1.064981	0.390538
-2.724101	-3.900453	2.603801	2.850965	-0.629855	0.698684
-0.422701	1.540132	0.939939	2.340960	0.254374	1.152004
1.656005	1.589401	-1.910948	0.178071	1.971476	-1.671782
-3.254279	2.127183	3.720892	-0.888687	-0.786962	-1.201572
-0.896124	0.403841	0.299231	0.656462	-1.267415	1.794412
-0.850669	-1.289286	0.684559	0.408143	-0.182407	0.293845
-0.403610	0.476207	1.286247	0.167870	1.148624	-1.035623
-1.724610	3.733584	1.545713	-0.138999	1.389188	0.654322
-0.387055	2.457411	2.085995	0.268459	-0.798393	0.230474
-0.577701	1.304811	-0.279031	-0.671022	-0.897074	-0.135996
1.598502	0.301202	-2.010144	0.934700	1.177526	0.459633
0.060091	0.260967	2.633211	-1.080888	-0.967663	-1.137093
0.533004	0.775939	1.018859	-0.042917	0.824137	-0.998516
2.428584	-1.028566	0.076560	0.085137	0.759116	-0.678291
0.284460	3.177025	-1.899642	0.767167	-0.501445	-0.750785
-1.616477	-0.821167	-2.835575	-0.678272	1.246499	0.899076
-4.058127	1.419910	0.825939	-0.461670	-0.208723	-0.000528
2.349341	-0.898268	-1.985555	-0.279528	0.645219	-1.919787
1.874139	-1.813585	0.552368	-1.308013	0.526811	-1.544725
0.643166	-0.148253	-1.625854	0.375443	1.019831	0.369230
3.669059	-0.972467	-0.296823	-0.091035	-1.425231	0.417251
-1.414634	3.955548	-3.222694	-0.372520	-0.332686	-1.226085
-0.660621	-1.096530	-0.359641	-1.224377	-0.026191	-0.799949
4.000953	-5.138522	-2.409039	0.129868	-0.010749	-0.179329
-1.413603	-4.329313	0.241870	-0.503395	0.054994	0.533652
1.631078	3.276473	-0.849489	-0.226248	0.052453	0.228984
1.023006	-2.122543	0.018220	-0.609984	1.055836	0.196913
0.697829	0.827883	-2.241953	1.025431	0.430569	0.837167
0.199327	1.994847	-1.649158	0.683174	-0.661498	0.337018
4.354319	-0.349764	-1.736694	0.624081	0.327671	2.015282
0.283054	2.586280	-2.755019	-0.510898	1.157589	1.306813
-2.006743	-1.135447	0.921147	-0.221306	1.379709	-0.697599
-2.613386	-3.762582	0.138135	-1.140374	-1.286425	1.586349
2.362559	0.048855	2.254648	0.294767	-0.008848	0.114217
1.472885	0.360726	-0.805731	-0.432955	0.912243	0.554781
-2.000981	1.547959	1.703460	-0.998554	0.186892	2.057839
-2.016010	3.882054	-0.152933	1.264877	-0.148762	0.073314
-0.598782	-2.135011	1.458751	0.998805	0.081410	-0.669868
0.648566	-4.499864	2.201905	0.004608	-0.355309	0.614157
100

-2.995959	-2.072590	-4.136362	-0.999007	-0.546304	-0.428464
-3.337322	-1.027705	-4.682380	-0.330564	0.766463	-1.574961
-1.389691	0.397607	1.610545	-0.676809	0.473214	-1.402818
-1.343825	-0.857492	1.669314	0.174003	1.598030	-0.207313
-4.328947	0.727518	-3.948618	-0.631581	-1.437298	1.561660
-1.124018	1.318401	2.719415	0.862452	-0.078548	0.171900
1.670608	3.947861	-2.734732	0.161493	0.697338	-1.066045
1.009309	-2.837467	0.515632	0.412971	1.996736	-0.055489
0.919732	-2.921396	2.316048	0.900670	-0.271363	-0.671961
0.811814	-3.616051	1.519502	-2.897553	-0.592017	0.227293
1.586699	-2.949595	-2.228909	-0.959688	1.658801	-1.209963
-4.761794	-1.411785	1.073710	-0.042018	0.110640	0.235091
-1.819514	2.985000	-2.373302	-1.060448	-1.019975	0.922603
-0.139496	-2.375948	0.157591	-1.174757	0.225004	0.771344
1.715085	-3.707728	0.491072	-0.249175	-1.154197	0.438479
0.975620	2.329515	-0.365811	1.821102	1.126031	0.493130
0.624355	-0.437822	1.773919	0.929852	1.625909	-0.484631
3.229880	-2.003803	-1.464636	-0.186354	-0.856341	-0.165473
-2.521509	-0.262305	1.410097	-1.937104	-0.539721	1.757679
2.446289	1.220169	-0.710705	-0.446194	-0.022687	-1.234234
3.370126	0.022657	-0.979650	-0.149406	-1.273541	-0.139688
0.007423	-2.224037	2.836271	0.220867	-0.047288	-0.454119
-0.368642	-0.497487	0.754540	-0.679703	-1.331580	0.931884
-4.200195	-0.912586	-0.732398	-0.909627	1.785072	1.212664
0.212293	0.261701	0.153320	1.020195	-1.099053	0.577417
-0.196736	1.304828	3.267918	0.630025	0.784153	1.315798
1.587820	-0.656837	1.833768	1.729499	1.039546	0.821363
-3.052399	1.889971	1.499683	-2.131419	1.103654	2.088712
-3.685941	-0.174504	0.466391	0.327218	-0.291793	0.861706
1.499300	1.120783	2.892135	-0.158023	-2.601053	0.012208
-1.077731	0.105709	-3.114585	-0.795566	-0.135360	0.806132
-2.665140	-0.182849	-3.032193	-0.400887	-0.930879	0.298153
0.463176	1.558396	0.061630	-0.892834	-1.088179	-1.271262
-0.047484	-1.237582	1.483721	-0.334768	-0.384712	0.934112
-0.503277	0.329329	-2.134227	0.140532	2.692151	-2.732453
0.141020	4.546129	-1.237698	-0.704731	0.348963	-0.583060
-2.009269	0.657145	2.558310	0.674348	-1.440818	0.959375
4.438014	0.907797	-0.878983	-0.171216	0.546051	-1.169941
0.705497	-1.461315	2.197845	0.714175	-1.170215	1.762948
-2.854331	-4.916312	1.848069	0.257420	-0.116772	0.669017
-0.513716	1.392613	4.258925	0.381277	0.345586	0.768951
-3.505036	3.015651	5.591389	-0.259637	1.987252	0.453706
-0.681476	5.143068	-2.130015	-1.235239	1.701093	0.625960
0.473687	-4.813486	-0.851046	-0.594939	-1.271929	-0.442224
-1.326547	-1.856011	-2.291583	-1.874296	1.568487	-0.692084
-0.571066	-0.016438	-0.899932	0.274305	-0.585118	-1.647391
1.701630	-1.968549	-4.059370	-0.169754	0.391843	0.507624
2.489028	1.195141	-3.114145	-1.072507	0.337626	-1.322566
3.444593	-0.532935	-2.022161	0.621496	0.221179	0.274357
-1.324489	-1.339182	-1.407237	-0.837270	-0.574827	-0.657722
-0.672867	2.970306	-2.500193	-0.346061	-0.119947	-0.211402
1.649164	-0.569378	2.815832	-1.298984	0.202227	-0.800318
1.229190	-1.166994	-1.810269	-0.598092	-1.138812	0.312695
-2.342809	0.785315	0.603509	-1.486057	-2.368675	0.797730
3.316189	-2.285534	0.765819	1.405507	-0.783799	0.525000
-0.395474	-0.990146	2.568433	0.498613	-0.631990	0.076324
0.138925	-1.290995	0.366659	-0.469895	-0.562818	-0.172700
-0.414060	1.110408	-3.763645	-0.430253	-0.109064	0.996865
-1.516484	-0.251782	-0.331256	1.482491	-0.998392	-0.692651
2.533463	-1.397316	-3.465311	1.330597	0.985885	-0.842171
1.070803	-0.236690	0.900854	0.533892	-1.373549	0.236507
-2.209432	-3.908269	2.947554	2.303048	0.074840	2.570973
-0.069168	1.653681	1.194618	1.888313	0.948599	0.882408
1.493718	1.746348	-1.987126	-0.937048	0.758328	1.033351
-3.203905	1.966080	3.382604	0.473743	-0.410181	-1.568121
-1.416890	0.626235	0.518032	-2.190923	1.138427	0.324306
-1.232691	-1.489170	0.468243	-0.829706	-1.426609	-0.671504
-0.399035	0.413723	1.134785	0.307794	-1.228968	-1.715959
-1.795892	3.985834	1.436464	-0.663294	1.105524	-1.567163
-0.275867	2.253008	2.186550	0.876047	-1.337203	0.664133
-0.477664	1.115863	-0.394808	2.022734	-0.949934	0.003821
1.846928	0.470188	-1.905154	1.105131	0.822695	0.500438
0.157436	0.269637	2.629501	1.522827	0.416590	0.131938
0.689576	0.780047	1.181017	0.365572	0.833151	1.588548
2.539513	-0.938834	-0.085830	1.409616	-1.068832	-1.548810
0.458842	3.267346	-1.794264	0.909584	0.577445	0.611862
-1.580553	-0.625574	-2.630452	0.568278	0.641599	0.920254
-4.181809	1.031028	0.914296	-0.306880	-1.772237	-1.032686
2.426304	-0.850958	-2.275165	0.797753	-0.174779	-0.863221
1.926754	-1.696155	0.385664	1.110688	0.420794	-0.671013
0.700226	0.071371	-1.516748	0.226349	1.100242	0.685670
3.522782	-1.116978	-0.295639	-0.667364	-0.637545	-0.932329
-1.366078	3.974769	-3.309505	0.709456	0.406697	-0.283919
-0.759398	-0.978844	-0.414222	0.017184	0.879368	-0.260137
4.097128	-5.257155	-2.274126	0.878301	-1.110280	1.084975
-1.321185	-4.182468	0.350031	0.700894	0.951183	0.484055
1.515100	3.286817	-0.785454	-1.691640	0.353445	-0.002624
0.849884	-1.922080	-0.086264	-0.228415	1.052092	-1.001331
0.789950	1.012854	-2.098835	-0.301035	0.825324	0.641181
0.416419	1.913060	-1.657520	1.927596	0.052106	-0.358923
4.340273	-0.028084	-1.420932	-0.237997	1.753886	1.324444
0.363181	2.394588	-2.755705	-0.176476	-2.322007	0.874708
-2.108104	-1.041765	0.698128	-1.404934	0.026434	-0.434809
-2.613191	-3.905549	-0.001657	-0.113533	-0.397305	-1.272034
2.378412	0.052333	2.235036	-1.212601	0.437845	-1.148680
1.366660	0.547765	-0.738460	-0.165240	0.721028	0.184074
-1.850175	1.731205	1.733494	1.733247	1.425426	-1.670481
-1.654037	3.650564	-0.112927	1.699475	-1.347964	0.207369
-0.508925	-2.230784	1.355698	-0.001959	-0.793295	-0.541162
0.667190	-4.573413	2.223972	-0.337167	-0.116252	-0.246880
100

-3.166643	-2.200864	-4.327804	-0.760254	-0.264936	-1.228198
-3.346220	-1.114317	-4.896604	-0.378078	-1.715693	-0.427149
-1.538551	0.474262	1.527820	-0.737064	0.571983	0.359685
-1.299576	-0.554210	1.632235	-0.181211	1.256791	0.525429
-4.545661	0.406638	-3.833304	0.009778	-0.768778	0.785255
-1.147326	1.242286	2.945561	1.085227	-1.732626	0.314705
1.755782	4.167222	-2.932420	1.778605	1.390346	0.318534
1.113513	-2.434833	0.514897	0.671934	2.129429	-0.070864
1.122411	-2.774332	2.388899	1.197364	1.937676	1.290325
0.711728	-3.507965	1.640259	0.040785	0.181557	0.097499
1.335496	-2.662766	-2.485688	-1.153570	1.288651	-1.352030
-4.825541	-1.384888	1.123001	-0.496253	-0.332772	0.319568
-1.994801	2.908291	-2.169663	-0.776016	0.710076	1.272154
-0.387605	-2.371045	0.266135	-1.406052	-0.543800	-0.609089
1.645600	-3.956078	0.612025	-0.437034	-1.447127	0.857679
1.325720	2.489630	-0.263025	1.560216	0.390445	0.697946
0.545560	-0.181528	1.835640	-1.616138	-0.411406	-0.501557
3.247947	-2.131111	-1.498222	0.416324	-0.413830	-0.184371
-2.782835	-0.380396	1.707579	0.682874	-1.048639	-0.270424
2.335234	1.206558	-0.956271	-0.390442	0.144622	-1.240282
3.267471	-0.250783	-0.819174	-0.675954	-1.303867	2.317981
0.049568	-2.249158	2.724427	-0.280007	-0.592300	-0.456452
-0.688220	-0.768552	0.862761	-1.111147	-0.201830	0.236215
-4.421005	-0.563239	-0.471359	-1.212560	1.757982	1.537618
0.428401	0.087383	0.245436	1.027170	-0.592339	0.246367
-0.123888	1.496022	3.290259	0.042727	1.642055	-0.593617
1.834337	-0.710971	1.588043	-0.204482	-0.284227	-0.653549
-3.483677	2.097540	1.918296	-2.182879	0.912443	2.123233
-3.695081	-0.132166	0.556223	-1.522147	-2.535682	-1.429283
1.339405	0.618228	3.116139	0.169060	-2.662312	0.572929
-0.979977	0.124777	-3.267775	0.445670	-0.663711	-2.400628
-2.661017	-0.358600	-3.014520	0.979148	0.043345	-0.292450
0.474190	1.411244	0.058323	0.662520	-0.695756	0.489566
-0.044435	-1.366889	1.642097	0.487970	-0.915288	0.253364
-0.548852	0.546074	-2.366493	0.014045	-1.069494	1.019791
-0.009925	4.657756	-1.353301	-0.586975	0.783354	-0.845581
-2.055187	0.487339	2.596488	-0.422072	-0.639775	0.038462
4.452209	1.147355	-0.998641	-0.198840	1.122398	-0.159954
0.830316	-1.605246	2.486078	-0.573488	0.233844	0.491991
-2.602726	-5.077357	1.766538	1.736174	-0.716249	-1.078020
-0.469981	1.392920	4.485943	-0.534210	0.472800	0.200158
-3.527606	3.358623	5.740961	0.149692	0.418518	0.135049
-0.739371	5.401160	-1.934611	-0.745617	0.206311	-0.792783
0.380006	-4.839870	-1.066097	0.492356	0.412336	0.748303
-1.708622	-1.665577	-2.450970	-1.938515	0.041586	-0.636063
-0.313597	0.018866	-1.102218	2.433300	1.470043	1.029042
1.710767	-1.839301	-3.955165	0.378681	0.780116	-0.320055
2.273549	1.174263	-3.392258	-1.537747	0.307203	-0.975522
3.453297	-0.473170	-1.848664	-0.071770	-0.022233	0.082008
-1.437717	-1.213042	-1.333721	1.318760	1.534729	-1.371355
-0.748661	2.924790	-2.554832	-0.328689	-0.300360	-0.406639
1.403872	-0.528198	2.966459	-1.083002	0.180054	0.669737
1.108454	-1.398252	-1.751884	-0.701332	-1.273269	0.270765
-2.981770	0.387760	0.896048	-0.428851	-0.109885	2.700580
3.514368	-2.479325	0.668709	0.825229	-0.854670	-0.906144
-0.341066	-1.100311	2.638063	0.044884	-0.386471	0.925716
0.081878	-1.408938	0.371136	-0.049179	0.043437	0.688882
-0.376239	0.868407	-3.805281	-0.296506	-1.886076	-0.185014
-1.486146	-0.276557	-0.263318	-0.202925	-0.196467	1.633093
2.642011	-1.027013	-3.561149	-0.622968	1.040597	-0.499806
1.218811	-0.410488	0.727672	-0.139548	-0.506173	-0.917842
-1.809622	-3.958307	3.438323	0.746121	-0.162476	2.859612
-0.245449	1.450167	1.104469	-1.970432	-0.361584	-0.999806
1.672109	1.937405	-1.889951	1.625168	0.701743	0.071108
-3.121586	2.016749	3.201406	0.406053	0.323470	-0.794054
-1.381495	0.723004	0.399449	0.665015	0.329892	-1.130897
-1.128611	-1.552191	0.458471	0.679073	-0.761503	-0.683254
-0.359715	0.495888	0.943219	-0.389435	-0.258926	-0.845348
-1.783036	4.280365	1.347259	0.324122	1.529883	0.414175
-0.138030	1.982034	2.329306	-0.559490	-0.571370	0.760692
-0.558691	0.780866	-0.309515	-1.453777	-2.186397	0.557008
1.968571	0.683547	-1.801375	0.111453	1.221065	0.573719
0.419213	0.432629	2.728672	0.727422	1.186543	1.235116
0.596827	0.792395	1.336775	-0.820037	-0.373822	-0.347794
2.569650	-1.006592	-0.341083	0.091967	0.295255	-1.100269
0.639371	3.362916	-1.722401	-0.026778	0.473033	-0.509708
-1.654535	-0.657062	-2.647613	-0.242654	0.617593	-0.804957
-4.195414	0.711363	0.676834	-1.037275	-0.406342	-0.849349
2.494017	-0.926592	-2.480936	-0.524356	-0.910754	-0.612986
1.956957	-1.694954	0.339380	-1.584367	0.559744	0.482732
